# .PCD v0.7 - Point Cloud Data file format
VERSION 0.7
FIELDS x y z
SIZE 4 4 4
TYPE F F F
COUNT 1 1 1
WIDTH 1472
HEIGHT 1
VIEWPOINT 0 0 0 1 0 0 0
POINTS 1472
DATA ascii
6.2953944 4.7495298 -0.13462342
6.4045615 4.7495551 -0.13607198
6.4869447 4.7446022 -0.13712086
6.5783591 4.7451324 -0.13835287
6.6725841 4.7465096 -0.13963754
6.7845621 4.7422338 -0.14111412
6.9107103 4.7461243 -0.14287378
7.0046625 4.7428398 -0.14413109
7.0961227 4.7366905 -0.14533296
7.1929197 4.7329106 -0.14663793
7.3098235 4.7410221 -0.14834177
7.3981657 4.7464676 -0.14962712
7.4897408 4.7354841 -0.15081066
7.6062093 4.7391825 -0.15248549
7.6860976 4.7361603 -0.15358849
7.7965336 4.7333722 -0.1551318
7.8837323 4.7330322 -0.15637161
7.9764977 4.7350316 -0.15771613
8.0754833 4.7217975 -0.15902105
8.2014847 4.7229595 -0.16084713
8.2935104 4.7213607 -0.16216426
8.3973503 4.72544 -0.16370559
8.4939337 4.724494 -0.16510276
8.5899811 4.7221718 -0.16648535
8.6908693 4.7216783 -0.16795769
8.7949409 4.7217698 -0.1694863
8.8914747 4.7169089 -0.17086764
8.979043 4.7253895 -0.17222781
3.2997069 4.7886338 -0.10072704
3.3916335 4.7858691 -0.1015325
3.4910355 4.7912641 -0.10254145
3.5851164 4.7866158 -0.10337715
3.6813514 4.7824874 -0.10425948
3.781517 4.7810211 -0.10523596
3.8925099 4.7905865 -0.10649057
3.9938724 4.7850924 -0.10746265
4.0975924 4.7799478 -0.10848328
4.1943469 4.7803235 -0.10951986
4.2905602 4.7777419 -0.1105278
4.3711896 4.7718811 -0.11133576
4.4812188 4.7803407 -0.11266571
4.5741973 4.773262 -0.11362321
4.7821417 4.7760077 -0.11604074
4.8919864 4.7743917 -0.11730334
4.9406619 4.7745142 -0.11787802
-3.0954034 4.8362336 -0.10533179
-3.0238545 4.8678584 -0.10506091
-3.2336943 -4.5352631 -0.10447714
0.56549704 -4.4755192 -0.082481697
0.71156538 -4.4806094 -0.082784772
0.79525405 -4.4732881 -0.082816593
0.88829613 -4.4738412 -0.08303345
0.93755865 -4.4872642 -0.083388671
3.1981723 -4.4888906 -0.097455576
3.2792387 -4.4920301 -0.098258898
3.3866773 -4.4977546 -0.099364266
3.4735382 -4.4884396 -0.10007735
3.5749817 -4.4960961 -0.10119085
-3.2364011 -4.4596567 -0.1034325
-3.0821702 -4.4204879 -0.10118776
-2.9890418 -4.414588 -0.10010582
-2.9034023 -4.4169359 -0.099240348
-2.8128626 -4.4150224 -0.098278642
-2.7127638 -4.4117079 -0.097219437
-2.619015 -4.4155807 -0.096352056
-2.5206001 -4.4200325 -0.095472217
-2.4078524 -4.4190331 -0.094401911
-2.319155 -4.4107237 -0.093466729
-2.2172263 -4.4161663 -0.092650108
-2.1157486 -4.4190054 -0.091825433
-2.0248115 -4.4212227 -0.091107041
-1.9238665 -4.4181533 -0.090249941
-1.8190454 -4.4224267 -0.089511462
-1.7140118 -4.4221616 -0.088732012
-1.6224713 -4.4303794 -0.088219278
-1.5181198 -4.4236851 -0.087404937
-1.411062 -4.4284973 -0.086798266
-1.3153927 -4.4389176 -0.086392775
-1.2148662 -4.4301834 -0.085669741
-1.1115334 -4.435235 -0.085200273
-1.007214 -4.4319115 -0.084620535
-0.91504776 -4.4423294 -0.084370166
-0.82063055 -4.4397798 -0.083919175
-0.72004199 -4.4411016 -0.08354488
-0.62006944 -4.4411616 -0.083187662
-0.52044672 -4.4394875 -0.082839884
-0.41482395 -4.4453702 -0.082645714
-0.31653982 -4.445518 -0.082410082
-0.2184705 -4.4444113 -0.08219108
-0.11350167 -4.4473619 -0.082070202
-0.01609464 -4.4505858 -0.082004577
0.081327736 -4.4526539 -0.081956625
0.18639149 -4.4532003 -0.08191625
0.28381956 -4.448761 -0.081829816
0.38172701 -4.4524426 -0.081924304
0.48028657 -4.4581275 -0.082090534
0.58171976 -4.461484 -0.082257815
0.67669916 -4.4607158 -0.082380883
0.78188503 -4.4619131 -0.082592666
0.87686014 -4.4616246 -0.082795881
0.9555679 -4.458972 -0.082946688
-3.2317662 -4.3606048 -0.10198252
-3.1063037 -4.4070611 -0.10125665
-3.0290141 -4.4084973 -0.10044368
-2.9506288 -4.4065876 -0.099583454
-2.8189178 -4.4027791 -0.098159157
-2.7269516 -4.4068971 -0.097288325
-2.4321258 -4.4042263 -0.094399042
-3.2376556 -4.2779188 -0.10089032
-3.2314997 -4.1675053 -0.099286065
-3.229023 -4.064889 -0.097844236
-3.2333481 -3.9735107 -0.096648984
-3.2212586 -3.8521352 -0.094866581
-3.2256446 -3.7536342 -0.09360493
-3.2291698 -3.6693661 -0.092535302
-3.2239015 -3.5776656 -0.09127216
-3.2235739 -3.4701905 -0.089881234
-3.2180533 -3.3606749 -0.088416763
-3.2206557 -3.2628183 -0.087223552
-3.2146032 -3.1592975 -0.085864738
-3.2135944 -3.0740998 -0.084814005
-3.2096305 -2.968205 -0.083492264
-3.20889 -2.8585413 -0.08219254
-3.2087193 -2.7624412 -0.081082687
-3.2075529 -2.6589603 -0.079898357
-3.204289 -2.5569251 -0.078724846
-3.2035315 -2.4685032 -0.077759117
-3.2029197 -2.3711832 -0.076724254
-3.1885443 -2.3216684 -0.075996727
0.56014246 -2.3567636 -0.045554686
-3.2004712 -2.2697487 -0.075645387
-3.1826651 -2.2437241 -0.075114258
0.55610144 -2.2379956 -0.043494239
-3.1939635 -2.160656 -0.074459828
-3.1856623 -2.1734831 -0.074458353
0.57550019 -2.1317949 -0.041726556
-3.2033758 -2.0546253 -0.073581219
-3.1873174 -2.0701346 -0.073480844
0.59601361 -2.0593143 -0.040552273
0.62833917 -2.014008 -0.039898876
-3.1991405 -1.9858314 -0.07287205
-3.1841016 -1.9416791 -0.072231695
0.68067425 -1.9433011 -0.038916897
0.72913909 -1.8927284 -0.03829224
1.3767457 -1.8970486 -0.042978093
1.4312441 -1.9494588 -0.044240836
-3.1987612 -1.8324325 -0.071486175
-3.1901267 -1.8712924 -0.071692333
0.77754402 -1.8577745 -0.037960682
0.85394567 -1.8144778 -0.03769042
0.95313454 -1.7876444 -0.037901435
1.0587016 -1.777265 -0.03850526
1.1545643 -1.7871233 -0.039415728
1.2455833 -1.8125501 -0.040566433
1.3205872 -1.8540238 -0.041840363
-3.1981478 -1.7744687 -0.070976838
-3.1905975 -1.7705047 -0.070824571
0.98432195 -1.7696917 -0.037832905
1.0432743 -1.7659277 -0.038209535
-3.1972609 -1.6473446 -0.069908567
-3.1840358 -1.673026 -0.069904231
-3.1842027 -1.5656422 -0.069051296
-3.2012246 -1.512964 -0.068926133
-3.1843698 -1.4520848 -0.068197094
-3.1830676 -1.3601813 -0.067520231
-3.1787379 -1.2625718 -0.066790119
-3.1823893 -1.1638641 -0.06622874
-3.1764512 -1.0636376 -0.065537982
-3.1791055 -0.96212548 -0.065034442
-3.179595 -0.86157757 -0.064545684
-3.1838398 -0.7634725 -0.064183153
-3.1711092 -0.66285491 -0.06355729
-3.1747928 -0.56713879 -0.06328927
-3.1730735 -0.46580976 -0.062955968
-3.1692724 -0.36524823 -0.06263981
-3.1656733 -0.26560852 -0.062381461
-3.1717012 -0.16725037 -0.062351026
-3.1691635 -0.063216612 -0.06221443
-3.1653335 0.035045043 -0.062112119
-3.165658 0.1386735 -0.062138874
-3.1665435 0.2371569 -0.062228523
-3.1619668 0.33562368 -0.062271237
-3.160892 0.43471059 -0.062430024
-3.158246 0.53431249 -0.062613651
-3.1579835 0.63510674 -0.062895261
-3.161099 0.73787713 -0.0632957
-3.1512499 0.83888102 -0.063513018
-3.158042 0.93973595 -0.064072192
-3.1608062 1.0353875 -0.064582624
-3.1466789 1.1330514 -0.064856544
-3.1529183 1.2394975 -0.065576315
-3.148464 1.3379751 -0.066113219
-3.1496456 1.4364424 -0.066786706
-3.1268399 1.4114304 -0.066234633
-3.1486413 1.5365534 -0.067476355
-3.1279955 1.4894024 -0.066795342
-3.1453004 1.6304777 -0.068120688
-3.1422846 1.7316628 -0.068864584
-3.1442072 1.8382051 -0.069770418
-3.1391153 1.9363463 -0.070532903
-3.1438172 2.0280652 -0.071423046
-3.1287525 2.063741 -0.071515717
-3.1426449 2.1371379 -0.0724141
-3.1305528 2.1183603 -0.072052039
-3.1468854 2.1991665 -0.073066808
-3.1328292 2.2371831 -0.07322339
-3.1408081 2.3398681 -0.074359536
-3.1312327 2.332891 -0.074147016
-3.1414998 2.440249 -0.075391263
-3.1324613 2.4460871 -0.075318821
-3.128397 2.5329275 -0.076169595
-3.1347334 2.6260161 -0.077257648
-3.1519451 2.6942055 -0.078243777
-3.1298554 2.740207 -0.078442439
-3.1307759 2.8347361 -0.079516299
-3.1283641 2.9292781 -0.080566674
-3.1233032 3.0341582 -0.081722997
-3.1202207 3.1340826 -0.082871549
-3.1227655 3.2427535 -0.084221303
-3.1184847 3.3370821 -0.085326985
-3.1248372 3.4340706 -0.086618409
-3.1202748 3.5340192 -0.087826304
-3.1140628 3.6352925 -0.089048803
-3.115943 3.736624 -0.090388514
-3.116426 3.8395681 -0.09174788
-3.1165569 3.9454603 -0.093157679
-3.1130607 4.0503097 -0.094527014
-3.1117394 4.1471753 -0.095827393
-3.1083524 4.229538 -0.096917532
-3.108763 4.3343554 -0.098370463
-3.1057117 4.437592 -0.099775493
-3.1025004 4.5441513 -0.101239
-3.1078596 4.6497922 -0.10279206
-3.1007524 4.7234049 -0.10376712
0.092240289 4.8184505 -0.086227022
0.43021253 4.8122268 -0.086110912
0.4832311 4.8181605 -0.086250536
0.59284878 4.8188314 -0.086369172
0.67445868 4.8193603 -0.086486362
0.78910005 4.819397 -0.086676493
0.8869285 4.8127217 -0.086763315
0.97514611 4.8240266 -0.087164342
1.0793993 4.8186493 -0.087354079
1.1804839 4.8185587 -0.0876607
1.2827379 4.8194175 -0.088021882
1.3847477 4.8156734 -0.088339835
1.488238 4.8134127 -0.088723458
1.5847158 4.8134537 -0.089147575
1.6813172 4.8104525 -0.089552701
1.7896781 4.8119836 -0.090121739
1.8884059 4.8081884 -0.090586558
1.9773685 4.7999253 -0.090953618
2.0818646 4.804193 -0.091640085
2.1880374 4.8083134 -0.092364192
2.2841713 4.8076468 -0.092977487
2.3887315 4.8008733 -0.093579665
2.4881661 4.800827 -0.094278581
2.578176 4.7987466 -0.094903424
2.6830409 4.802547 -0.095752083
2.7846763 4.7970247 -0.096461043
2.8831403 4.8014789 -0.097318925
2.9784882 4.7975864 -0.098049715
3.0881884 4.7961454 -0.098961435
3.1826999 4.78543 -0.099631004
3.2448258 4.7931347 -0.10029523
-2.965019 4.8651547 -0.10443095
-2.910171 4.8676605 -0.10392531
-2.8112905 4.8696809 -0.10299373
-2.7094333 4.8637314 -0.10193691
-2.6161757 4.8697209 -0.10116258
-2.5192239 4.8663239 -0.10023392
-2.4249201 4.8648405 -0.099380739
-2.3198397 4.8589096 -0.098389409
-2.2207413 4.861578 -0.097608134
-2.11007 4.8570228 -0.096649088
-2.0050225 4.8608146 -0.095896348
-1.9081609 4.857852 -0.095127575
-1.8137536 4.8574247 -0.094442941
-1.7189736 4.8525949 -0.093710326
-1.6182407 4.8529353 -0.093049563
-1.5089779 4.8509421 -0.092328385
-1.4108388 4.8510723 -0.091743007
-1.3149235 4.8551807 -0.09126725
-1.2097346 4.8538914 -0.090682849
-1.1123601 4.8445077 -0.090035766
-1.0186189 4.8459516 -0.089618616
-0.91797942 4.8512287 -0.089266412
-0.8160612 4.8460469 -0.088766485
-0.71503258 4.8404613 -0.088297799
-0.61616921 4.8437042 -0.088022001
-0.51679796 4.8393602 -0.087649085
-0.41840458 4.8381281 -0.087366708
-0.32023817 4.8332925 -0.087057106
-0.21470749 4.8323631 -0.08683674
-0.10963067 4.834446 -0.086708196
-0.012644932 4.8327537 -0.086562961
0.082591072 4.8328013 -0.086483322
0.18106568 4.8361192 -0.086491629
0.28613627 4.8358531 -0.086474121
0.38304111 4.8322501 -0.086433969
0.49640432 4.830162 -0.086468883
0.57833129 4.8359847 -0.086647823
0.68828619 4.8322868 -0.086728007
0.7784996 4.8311553 -0.086859547
0.86527121 4.8321652 -0.087046705
1.0068264 4.8328905 -0.087394938
-3.2389781 -4.5424013 0.092466645
0.91945732 -4.4745865 0.076465607
3.209372 -4.4891396 0.093925647
3.2888455 -4.4897971 0.094784215
3.3824725 -4.4922252 0.095835157
3.4748499 -4.4904203 0.096830904
3.5589075 -4.4911547 0.097784258
-3.2351151 -4.4578028 0.091252521
-3.0916586 -4.4178972 0.089315027
-3.0436203 -4.413321 0.088796437
-2.9026737 -4.4157839 0.087527618
-2.7999392 -4.4222622 0.086699173
-2.7291205 -4.4155245 0.085981354
-2.620189 -4.417388 0.085075788
-2.507725 -4.4149594 0.084106624
-2.4198749 -4.417026 0.083432004
-2.3212588 -4.4144139 0.082623363
-2.2163301 -4.4142251 0.081831113
-2.1171765 -4.4217229 0.081228234
-2.0154073 -4.4203544 0.080499798
-1.9189547 -4.4269929 0.07996095
-1.8193691 -4.4230108 0.079264164
-1.7148244 -4.4238648 0.07864432
-1.6135861 -4.4293165 0.078151561
-1.5117184 -4.4290071 0.077595867
-1.4211531 -4.4334769 0.077207536
-1.3208165 -4.4298038 0.076669425
-1.2164899 -4.4354243 0.076300651
-1.1189742 -4.4327002 0.075858355
-1.016607 -4.4374733 0.075558253
-0.91448236 -4.4394588 0.075249262
-0.8124429 -4.4374561 0.074912108
-0.71201968 -4.4388456 0.074673735
-0.61307454 -4.4450026 0.074558705
-0.51379418 -4.4458127 0.074388042
-0.41472507 -4.4438295 0.074208215
-0.3165009 -4.4440775 0.0741041
-0.21859482 -4.4441905 0.074036047
-0.11370318 -4.4495573 0.074094623
-0.01627627 -4.4533935 0.074167252
0.081237882 -4.446764 0.074096814
0.18617731 -4.449327 0.074229792
0.28393868 -4.45399 0.074431151
0.38174343 -4.4539833 0.074589923
0.48754063 -4.455399 0.074827418
0.58557224 -4.4510279 0.074987695
0.6855908 -4.4594069 0.075410664
0.78510147 -4.4582705 0.075705439
0.88063157 -4.4603014 0.076077648
0.95583642 -4.4609156 0.076375663
-3.23072 -4.3591146 0.089845873
-3.108933 -4.4105611 0.089376695
-3.0122399 -4.4079943 0.088428073
-2.940815 -4.4080153 0.087765276
-2.8442049 -4.4086328 0.086896941
-2.7032025 -4.4020686 0.085558757
-2.6090682 -4.3992376 0.084713042
-2.5531337 -4.4070978 0.08436209
-2.4128013 -4.4046102 0.083187871
-3.2333648 -4.2574339 0.088479355
-3.2351408 -4.1575074 0.087140381
-3.2350543 -4.0721521 0.085990839
-3.2292628 -3.9685409 0.084548846
-3.2284963 -3.8737073 0.083287984
-3.2227879 -3.7758691 0.081947856
-3.2245033 -3.6765523 0.080682382
-3.2231452 -3.5767486 0.079392463
-3.2175183 -3.4637046 0.07790453
-3.2247574 -3.3674676 0.076791368
-3.2171738 -3.2702048 0.075511716
-3.2126667 -3.1680782 0.074225791
-3.2117331 -3.0619547 0.072954446
-3.2139795 -2.9619524 0.071815766
-3.2100134 -2.8594849 0.070594065
-3.2106137 -2.7639725 0.069529675
-3.2063687 -2.6579812 0.068311147
-3.2065721 -2.5586574 0.067246802
-3.2014251 -2.4668701 0.06621556
-3.1971745 -2.3748276 0.065214954
-3.1877937 -2.3377182 0.064712852
0.55637246 -2.3180063 0.038387593
-3.2005019 -2.2724452 0.064237572
0.55532789 -2.2156172 0.036648043
-3.1964328 -2.1649137 0.063141577
-3.1878765 -2.1590934 0.062965848
0.57674205 -2.1209214 0.035142854
-3.1946969 -2.0465283 0.062010601
-3.1875923 -2.0651352 0.062081616
0.59861982 -2.0551319 0.034137249
0.62431848 -2.0127616 0.03355616
-3.1992047 -1.9770578 0.061447412
-3.1885266 -1.9442881 0.061003767
0.67488897 -1.9478841 0.032749403
0.72849607 -1.8910202 0.032129493
1.3746579 -1.8940474 0.037636094
1.4394605 -1.9615883 0.039279085
-3.1976433 -1.8536139 0.060348473
-3.1860967 -1.8690088 0.060313944
0.77912593 -1.8524493 0.031827744
0.8543458 -1.815577 0.031768057
0.95193887 -1.7874577 0.032084558
1.0567797 -1.7750995 0.032793101
1.1557726 -1.7892293 0.033921752
1.2580934 -1.8187761 0.035357486
1.3267455 -1.8566542 0.036602978
-3.2050617 -1.7639014 0.059708916
-3.186003 -1.7702715 0.0594832
0.99941385 -1.7698295 0.032206684
1.0243561 -1.7665186 0.032372832
-3.1965075 -1.6469382 0.058651123
-3.1873384 -1.6661302 0.058666367
-3.2028401 -1.6087458 0.058452632
-3.186687 -1.553246 0.057794448
-3.1876409 -1.4668219 0.057183497
-3.1828921 -1.3665807 0.056422688
-3.1838193 -1.2645675 0.055779025
-3.1809931 -1.1633494 0.055125933
-3.1805942 -1.0649722 0.054571219
-3.177856 -0.96171761 0.053999659
-3.1752555 -0.86040473 0.053487174
-3.176971 -0.76176971 0.053105257
-3.1793025 -0.6588667 0.052766688
-3.1686499 -0.56040049 0.05227951
-3.171463 -0.46556729 0.052073359
-3.1643081 -0.364609 0.051735844
-3.1653731 -0.26554942 0.051591117
-3.1661618 -0.16696472 0.051494341
-3.1668518 -0.06315773 0.051446717
-3.1700959 0.03509799 0.051497906
-3.1635334 0.13861513 0.051439736
-3.1591935 0.23668286 0.051469781
-3.1669984 0.33601904 0.051756818
-3.1593604 0.43446562 0.05183595
-3.1592853 0.53445053 0.052096784
-3.1579814 0.63516015 0.052391611
-3.1554577 0.73663837 0.052721467
-3.1530349 0.83930409 0.053110383
-3.154187 0.93863666 0.053592481
-3.1540785 1.0332239 0.054076411
-3.1489091 1.1337485 0.054557037
-3.1523542 1.2392271 0.055250689
-3.1477218 1.3375663 0.055819415
-3.1465685 1.4393705 0.056509331
-3.1444581 1.5342131 0.057175178
-3.1296656 1.542576 0.057013225
-3.1463525 1.6377294 0.058007222
-3.1456828 1.7356662 0.058794793
-3.1302297 1.7597792 0.058768213
-3.1457045 1.8303652 0.05960058
-3.1282656 1.8504272 0.059521787
-3.1394596 1.9340495 0.060430225
-3.1272101 1.9436712 0.060340397
-3.1441085 2.0357034 0.061433561
-3.1401594 2.1297619 0.062276609
-3.1299214 2.1409283 0.06224094
-3.1452379 2.2298024 0.063332751
-3.1226752 2.2300477 0.063023813
-3.141927 2.2914901 0.06390857
-3.1313014 2.3410139 0.064274639
-3.143178 2.4357696 0.065427274
-3.1330454 2.4562962 0.065510556
-3.1406541 2.5249529 0.066349626
-3.1281145 2.5370021 0.06631726
-3.1474271 2.6721897 0.068062693
-3.1265574 2.6228931 0.067244262
-3.129992 2.7402084 0.068611532
-3.1246715 2.8388658 0.069683217
-3.1272192 2.9379008 0.070880868
-3.1311269 3.0414069 0.072169609
-3.1234567 3.1266165 0.073116519
-3.1252713 3.2343931 0.074474432
-3.1209497 3.3394988 0.075748079
-3.1185129 3.4387505 0.076990545
-3.1235259 3.5373564 0.078324385
-3.12534 3.6356599 0.079634942
-3.1189139 3.7399037 0.080950074
-3.1169715 3.8400877 0.082276829
-3.115555 3.9440739 0.083676219
-3.11339 4.0505381 0.085117616
-3.1120877 4.1474366 0.086449534
-3.1092753 4.2305565 0.08758527
-3.1115999 4.3379564 0.089124411
-3.1078954 4.440443 0.090547554
-3.1059883 4.5327168 0.091853529
-3.111136 4.6378417 0.093420759
-3.1094031 4.7359295 0.094832055
-0.0043737702 4.8168182 0.081198223
0.20480274 4.8200049 0.081402838
0.30158404 4.8223915 0.08156734
0.52813971 4.8229847 0.081997015
0.57623142 4.8162231 0.081991829
0.67453396 4.821219 0.082337342
0.78541106 4.8230338 0.08269807
0.87163466 4.8209648 0.082948767
0.99265468 4.8174238 0.083334729
1.0871418 4.8161778 0.083696209
1.1808089 4.8204274 0.084180325
1.2832191 4.8217654 0.084685713
1.3850027 4.8169508 0.085117862
1.4891484 4.8170075 0.085680269
1.5829157 4.808013 0.086063944
1.6813097 4.810782 0.086703241
1.788674 4.8095708 0.087363802
1.8885001 4.8086915 0.088013396
1.9886941 4.8054318 0.088657528
2.0908971 4.8036308 0.089369476
2.1838696 4.7990837 0.089996964
2.2821548 4.8034492 0.09083467
2.3805101 4.804574 0.091646872
2.4778047 4.8002639 0.092390008
2.5795698 4.8016243 0.093286633
2.6808083 4.7986917 0.094137996
2.7884283 4.8038597 0.095198922
2.8885007 4.7923698 0.09596128
2.9883044 4.7959032 0.096973673
3.0843329 4.7902174 0.097833432
3.1862395 4.7910786 0.098870993
-2.9032056 4.8743606 0.095064484
-2.8115888 4.8699794 0.09423013
-2.7099621 4.8644977 0.09331502
-2.6134377 4.8646169 0.092549644
-2.5063851 4.8616133 0.091677815
-2.4144087 4.8641376 0.091030218
-2.3232377 4.8655252 0.090393201
-2.2220743 4.8640766 0.089663945
-2.1206186 4.8583517 0.088890962
-2.0131197 4.856988 0.088177398
-1.9110428 4.8644853 0.087671526
-1.813765 4.8570814 0.086980574
-1.7186903 4.8515754 0.08635889
-1.6172955 4.8499885 0.085795812
-1.5105726 4.8553448 0.085353486
-1.4102831 4.8489671 0.084778503
-1.3135397 4.8499317 0.084373996
-1.208261 4.8480158 0.083917104
-1.1136458 4.849309 0.083588064
-1.0188231 4.8463936 0.083216757
-0.9167428 4.8447113 0.082874879
-0.81535345 4.8416929 0.082546756
-0.71587038 4.8448882 0.082365751
-0.61565751 4.8395576 0.082069546
-0.51643914 4.8356767 0.081834868
-0.41914451 4.8439622 0.081849977
-0.31266275 4.8390942 0.081661843
-0.20687523 4.8343806 0.081515983
-0.10967197 4.8328714 0.08146745
-0.014455654 4.837626 0.081562959
0.08407405 4.8319931 0.081510134
0.17601241 4.8323569 0.081591785
0.2831189 4.8301163 0.081679359
0.39078867 4.828557 0.081820011
0.48001787 4.8295484 0.082008608
0.59034503 4.8343515 0.082345225
0.69204682 4.8306308 0.08254914
0.77461213 4.8338785 0.082853891
0.9228524 4.8300295 0.083287731
0.95640785 4.8316274 0.083439864
8.9638395 -4.5895314 0.17656624
9.1243086 -4.5961795 0.17921451
9.1848059 -4.5886831 0.18013746
9.2863493 -4.6014271 0.18188527
9.3878717 -4.5939193 0.18348067
9.5110741 -4.5961943 0.18550783
9.5971069 -4.5988626 0.1869344
9.6641121 -4.5917835 0.18797882
9.7739534 -4.6047301 0.18987592
9.8799353 -4.5949249 0.19154572
10.07383 -4.6047316 0.19481109
10.218915 -4.6102247 0.19724657
10.29787 -4.6049833 0.19851604
10.418862 -4.6181011 0.20061332
10.496708 -4.6111727 0.20185699
4.4909868 -4.5374317 0.10965309
4.5812201 -4.5381436 0.11082166
4.7199759 -4.5392098 0.11263963
4.7810373 -4.537673 0.11342406
4.8743868 -4.5356507 0.11463631
4.9769077 -4.5403471 0.11606208
5.0816116 -4.54493 0.11752766
5.1762366 -4.5383024 0.11873832
5.2801285 -4.5380239 0.12016068
5.3951278 -4.545259 0.12183366
5.4947648 -4.5371289 0.123133
5.5969706 -4.5448942 0.12465496
5.6884036 -4.541955 0.12591678
5.7983994 -4.5524683 0.12759662
5.8913989 -4.5475688 0.1288774
6.0000648 -4.5534081 0.1305062
6.090827 -4.543611 0.13172108
6.2085156 -4.5526638 0.13353288
6.2970152 -4.5542002 0.13484778
6.3855076 -4.5545659 0.13615666
6.4768806 -4.5557947 0.13752298
6.5703292 -4.5572476 0.13892855
6.6857529 -4.5562873 0.14064635
6.805088 -4.5561776 0.14244041
6.9040279 -4.5735831 0.14410311
6.9659882 -4.5651569 0.14496203
7.0697608 -4.566998 0.1465586
7.1870108 -4.5592203 0.14827876
7.3119683 -4.5716033 0.15031232
7.3917193 -4.5708246 0.15153481
7.4941564 -4.5661983 0.15307748
7.5704918 -4.5616059 0.15422098
7.6734958 -4.5723343 0.15592071
7.7921705 -4.5738401 0.15778808
7.8801756 -4.5733857 0.15916342
7.9734907 -4.5750341 0.16064486
8.0916481 -4.5722804 0.16248472
8.1898804 -4.5746651 0.16405903
8.2944221 -4.5794897 0.16575855
8.3964319 -4.5819511 0.16740169
8.4838686 -4.5752683 0.16874139
8.5914164 -4.5787687 0.17048989
8.6527996 -4.5749092 0.17144239
8.7778978 -4.585813 0.17353995
8.8837309 -4.5854468 0.17524113
9.021677 -4.5815945 0.17743874
3.6196032 -4.506906 0.098687924
3.688911 -4.5010586 0.099404633
3.7845576 -4.4955235 0.10044181
3.879303 -4.5019026 0.10164479
3.9797728 -4.4972262 0.10278563
4.0874486 -4.4982104 0.10410604
4.1966391 -4.4979444 0.10544778
4.2956738 -4.4991698 0.10669909
4.3814492 -4.5144491 0.1079726
4.482151 -4.5281405 0.10942609
4.614542 -4.5260057 0.11110426
4.6637502 -4.529386 0.11178576
9.3741236 -2.7294209 0.17158805
9.2687531 -2.6314931 0.16928874
9.2124805 -2.5159698 0.16777356
9.2293406 -2.5537086 0.16823989
9.1671734 -2.437968 0.16663314
9.1671362 -2.3401713 0.16620944
0.55776989 -2.3454387 0.1231725
9.171876 -2.2440422 0.16589327
0.55523026 -2.2217474 0.1433975
9.1876516 -2.1509972 0.16580038
9.2190561 -2.0938582 0.16613452
0.57475621 -2.1290064 0.15094523
9.251852 -2.0367987 0.16650213
0.59985614 -2.0605977 0.14675768
0.62974995 -2.0042353 0.14804851
9.2937565 -1.9814472 0.16704334
9.3549976 -1.9297073 0.16794863
9.4461374 -1.883492 0.16940956
0.67888945 -1.9388688 0.13680132
0.7292468 -1.8904244 0.1379333
1.3717495 -1.8932215 0.13816915
1.4300587 -1.9479084 0.12228069
9.4679146 -1.855188 0.16970317
9.5466547 -1.8379658 0.17104752
9.6484795 -1.8246926 0.17281708
-3.1988957 -1.8690181 0.19296457
-3.1881158 -1.8799045 0.19276735
0.77419418 -1.8556767 0.13496506
0.85426968 -1.8155392 0.13832437
0.95188582 -1.784475 0.13713379
1.0547583 -1.7780671 0.13815294
1.1553013 -1.7860759 0.14590906
1.246452 -1.8141321 0.14907692
1.321748 -1.8560336 0.15442733
-3.203197 -1.7771599 0.19081426
-3.1896439 -1.7617592 0.18982217
0.9757188 -1.7675885 0.13695751
1.0510784 -1.7661972 0.13918699
1.1148672 -1.7680528 0.10532276
-3.1851673 -1.6619714 0.18718392
-3.1857555 -1.566326 0.18498816
-3.1874704 -1.4667016 0.18286321
-3.181798 -1.3660817 0.18049088
-3.1794844 -1.2628052 0.17834893
-3.1868899 -1.1654378 0.17691956
-3.1750438 -1.0631529 0.1745981
-3.1801457 -0.96835434 0.17336091
-3.1761978 -0.86651248 0.17170808
-3.1785924 -0.76216638 0.1704891
-3.1736462 -0.66335756 0.16911785
-3.1721194 -0.56668723 0.1680871
-3.1753447 -0.4661206 0.16741084
-3.1722763 -0.3655799 0.16657004
-3.1741471 -0.26638108 0.16614778
-3.1704357 -0.16723168 0.16559416
-3.1687944 -0.063199118 0.1652998
-3.1707106 0.035054475 0.16535941
-3.1618755 0.13853014 0.16502726
-3.1662264 0.23716685 0.16553298
-3.162919 0.33560798 0.16579807
-3.1630759 0.43496129 0.16640219
-3.1608229 0.53470498 0.16704178
-3.1563754 0.63478029 0.16772884
-3.1574717 0.73699081 0.16887645
-3.1558864 0.83419633 0.16997978
-3.1593285 0.93415141 0.17151612
-3.1556592 1.0336709 0.1728328
-3.1522717 1.1349031 0.17433792
-3.1507208 1.2385691 0.17611782
-3.1474786 1.337449 0.17786692
-3.1530206 1.4421223 0.1802839
-3.1505575 1.5392232 0.18228507
-3.1258094 1.5804317 0.18206345
6.5074401 1.6847265 0.11707006
-3.146055 1.6442599 0.18449681
6.2462358 1.772311 0.11291171
6.310276 1.7342291 0.11384582
6.4045463 1.7033762 0.11535062
-3.1448724 1.7398119 0.18675748
6.1570587 1.8575054 0.11179082
6.1959386 1.8134806 0.11224101
-3.1438804 1.8378288 0.18919362
6.1002483 1.928637 0.11118609
-3.1417303 1.9425931 0.19186424
-3.1316254 1.9025419 0.1903377
6.0505381 2.0347438 0.11092052
-3.1416535 2.0265141 0.19415596
-3.1303799 2.0271649 0.19368623
6.037796 2.1310041 0.11126564
6.041925 2.2341871 0.11196697
6.0565171 2.3081713 0.11268085
6.0677238 2.3470478 0.11312117
6.0963845 2.4164298 0.11406009
6.1551194 2.4870768 0.11552067
6.1842594 2.5347812 0.11633346
6.277472 2.6096718 0.11841011
8.8790827 4.7103686 0.17725343
9.0253811 4.7116833 0.17961814
9.1762323 4.7133837 0.18206735
9.2851124 4.711113 0.18381198
9.5048313 4.7043877 0.18732862
9.6275101 4.7057471 0.18933982
9.7077513 4.7051797 0.19064662
9.7784042 4.6994472 0.19175844
9.869523 4.7030573 0.19327992
9.9700613 4.7105155 0.19498761
10.081495 4.7018952 0.19675538
10.220361 4.7049971 0.19906773
10.309193 4.7045274 0.20053145
10.359842 4.6861224 0.20123312
10.490427 4.7034163 0.20352325
10.548315 4.6873527 0.20436649
4.1792283 4.76299 0.10956042
4.7112641 4.767662 0.11625203
4.7868857 4.7648525 0.11719307
4.8994312 4.7659073 0.11867028
4.9789963 4.7641602 0.11969399
5.0942211 4.7631521 0.12121018
5.1963077 4.7632265 0.12257842
5.2764926 4.7573237 0.12359023
5.3878098 4.7619743 0.12516131
5.4996285 4.7649503 0.12673065
5.5789409 4.7536259 0.12769686
5.6957021 4.7567434 0.1293603
5.7973738 4.7612476 0.13083903
5.8912849 4.7575245 0.13212515
5.990716 4.7568221 0.13353191
6.0657516 4.7514849 0.13454698
6.1783533 4.7580175 0.13623945
6.2929039 4.7476902 0.13778812
6.4013085 4.7472258 0.13936451
6.496264 4.751554 0.14080317
6.5752187 4.7429571 0.14187685
6.692862 4.7443218 0.14363436
6.7994542 4.7360625 0.1451378
6.9103346 4.7459602 0.14689878
6.9985647 4.7387753 0.14815396
7.0927682 4.7345042 0.14953487
7.1907463 4.7487531 0.15116113
7.2818828 4.7400231 0.15246381
7.3813219 4.7356634 0.15394126
7.4918656 4.736927 0.15565094
7.590363 4.7293196 0.15709652
7.6869154 4.7367649 0.15866019
7.7854428 4.7266755 0.16009572
7.9085937 4.730226 0.16204754
7.9925065 4.7267652 0.16332789
8.0879078 4.729197 0.16484611
8.201252 4.7229047 0.16657303
8.2869616 4.7176852 0.16787946
8.4013109 4.727766 0.16977824
8.4958401 4.7256346 0.17125978
8.583704 4.7187762 0.17259909
8.6994448 4.7264347 0.17451125
8.7632799 4.7236056 0.17550808
8.840168 4.7273798 0.1767717
8.9790039 4.7254386 0.17898539
9.1101446 4.717649 0.18103446
9.419117 4.7205009 0.1860621
3.2785392 4.7918749 0.099830516
3.3801792 4.7865248 0.10081759
3.4733417 4.7835517 0.10176889
3.5775533 4.79317 0.10304014
3.6836486 4.7856884 0.10410837
3.791723 4.794343 0.10544766
3.8901463 4.787775 0.106484
3.9887602 4.7789893 0.1075111
4.0861068 4.7827077 0.10871068
4.1746879 4.7790399 0.10972137
4.2913461 4.7787409 0.11113194
4.3893085 4.7760029 0.11230005
4.4773016 4.7762418 0.11339746
4.5834379 4.7778578 0.11475347
4.6723542 4.7752852 0.11585047
4.7946396 4.7728562 0.11739258
5.0406137 4.7758446 0.12065191
-3.0981472 4.8402138 0.096259065
-3.0145411 4.8709612 0.095973998
-2.9506075 4.8780766 0.095524766
13.341114 -4.6405482 0.25009522
13.95892 -4.6497102 0.26075104
14.105784 -4.6468787 0.26326367
14.252722 -4.6430941 0.26577538
14.417004 -4.6439776 0.26861376
14.570042 -4.6401415 0.2712363
14.7982 -4.659183 0.27527851
14.966366 -4.657794 0.2781812
15.140263 -4.6570635 0.28118953
15.317078 -4.656064 0.28425011
15.480682 -4.6498752 0.28705892
15.672433 -4.6510386 0.29039574
10.571155 -4.6022453 0.20303252
10.691687 -4.6129794 0.20511231
10.791992 -4.61412 0.20679189
10.86771 -4.6040387 0.20798756
10.990028 -4.6132832 0.21009389
11.094177 -4.6140327 0.21184196
11.221513 -4.6237526 0.2140401
11.328892 -4.6243477 0.21584597
11.413607 -4.6149483 0.21720855
11.584661 -4.617527 0.22010456
11.718665 -4.6037445 0.22227681
11.891479 -4.6266685 0.22533965
11.975144 -4.613627 0.22667363
12.09332 -4.6133761 0.22867328
12.210559 -4.6119776 0.2306526
12.369157 -4.6254406 0.23342645
12.492813 -4.6247249 0.23552395
12.599961 -4.6170645 0.2373018
12.771444 -4.6323042 0.24031322
12.890538 -4.6273398 0.24231574
13.028454 -4.6283512 0.24467692
13.143039 -4.6201439 0.24658909
13.471533 -4.6360402 0.25230488
13.608228 -4.6328301 0.25463217
13.759606 -4.6337099 0.25723693
-3.2371929 -4.5397878 0.28963917
3.2013812 -4.4939637 0.28561461
3.2803459 -4.4940181 0.28804231
3.3824224 -4.492353 0.2911607
3.4813106 -4.4991837 0.29459754
3.5663381 -4.500967 0.29742411
-3.2357576 -4.4584918 0.28617597
-3.0909135 -4.4167099 0.28003612
-3.0165603 -4.416708 0.27783668
-2.9086235 -4.4162421 0.27468529
-2.8099582 -4.4210463 0.27210101
-2.7222798 -4.4155803 0.26943171
-2.6132212 -4.4225173 0.26679957
-2.5176148 -4.4145632 0.26393759
-2.4190371 -4.4153733 0.2614609
-2.3227234 -4.4169741 0.25915205
-2.2207959 -4.4226427 0.25697675
-2.1168132 -4.4207482 0.25448895
-2.0173566 -4.4242792 0.25244856
-1.9094926 -4.4255486 0.25021297
-1.8094019 -4.41994 0.24790516
-1.7151468 -4.4244399 0.24628797
-1.6139143 -4.4297819 0.24467112
-1.5120537 -4.4298277 0.24288544
-1.4131567 -4.4340658 0.24145687
-1.312902 -4.430398 0.23971455
-1.217818 -4.439683 0.23879486
-1.1199358 -4.4357491 0.23727131
-1.0166403 -4.4373021 0.23606195
-0.91339743 -4.4343057 0.23473373
-0.82013249 -4.4366441 0.23389241
-0.7200768 -4.4399691 0.23314133
-0.61263239 -4.4414296 0.23235069
-0.51394778 -4.446209 0.23191668
-0.41511935 -4.4460378 0.23134047
-0.31676534 -4.4458599 0.23087539
-0.21912979 -4.4504471 0.2307757
-0.11385414 -4.4504194 0.23053221
-0.016139895 -4.4437466 0.23007339
0.081150644 -4.4542723 0.23062752
0.18615587 -4.4529281 0.23068471
0.28389719 -4.4558706 0.23107152
0.38205439 -4.4605932 0.23166697
0.48724428 -4.4536738 0.23180339
0.58608258 -4.4568658 0.23255168
0.68487662 -4.4548326 0.23314327
0.78502011 -4.4584384 0.23414679
0.88543272 -4.4587116 0.23509637
0.95623946 -4.4635959 0.23606822
-3.23019 -4.358243 0.28181589
-3.1048865 -4.4048042 0.27994934
-3.0289924 -4.4080129 0.277832
-2.930819 -4.409173 0.27501446
-2.8016629 -4.408484 0.27131554
-2.6736851 -4.4042778 0.26760784
-2.6553504 -4.4078798 0.2672725
-3.2352107 -4.2744684 0.2784988
-3.2304683 -4.1659741 0.27388874
-3.233511 -4.0701785 0.2700834
-3.2345152 -3.974762 0.26626727
-3.2266037 -3.8582249 0.26135248
-3.2235711 -3.763737 0.25751761
-3.2257237 -3.6654253 0.25375256
-3.2242432 -3.5657256 0.24985154
-3.2191019 -3.4653099 0.24584518
-3.2156794 -3.3580678 0.24168928
-3.211483 -3.2644539 0.23806594
-3.2135906 -3.1688893 0.2346513
-3.2154727 -3.0653768 0.23099999
-3.2134411 -2.9613764 0.22725065
-3.2136188 -2.8625581 0.22383259
-3.2111168 -2.764318 0.22039489
-3.2096407 -2.6697104 0.21718349
-3.2039504 -2.5655317 0.21355823
-3.2045693 -2.4605434 0.21024309
-3.1995392 -2.3629825 0.20700797
0.55794746 -2.346771 0.25041276
-3.1976919 -2.2541497 0.20364931
-3.1769137 -2.2967651 0.2040439
0.55270469 -2.2353201 0.25226435
-3.2001166 -2.1609273 0.20102569
-3.1887457 -2.143779 0.20003876
0.57854253 -2.1132147 0.26565167
-3.2034452 -2.0721383 0.19864717
-3.1917162 -2.0368834 0.19715036
0.6044848 -2.0496674 0.25882676
0.63240534 -2.0025041 0.25411987
-3.1984227 -1.9689398 0.19558918
-3.1919587 -1.9763836 0.19550735
0.68233496 -1.9374715 0.2481806
0.72837955 -1.8911082 0.24451314
1.37941 -1.8985436 0.24874227
1.4389418 -1.9610637 0.24969475
0.77524984 -1.8520863 0.24194567
0.85455406 -1.8162385 0.241485
0.95024192 -1.7843051 0.24277337
1.0585886 -1.7789001 0.2482927
1.1519506 -1.7831123 0.25443548
1.2483984 -1.8173729 0.26425773
1.3208307 -1.8547535 0.27297226
1.0194061 -1.7647489 0.24445482
-3.1772754 -1.0274614 0.29436943
-3.1756246 -0.96445817 0.2926122
-3.1783509 -0.86709744 0.2905077
-3.1775351 -0.76189625 0.2881749
-3.1764157 -0.66396308 0.28621453
-3.1775978 -0.56764364 0.28472009
-3.1713445 -0.46553624 0.28274876
-3.1695433 -0.36528048 0.28144607
-3.1680617 -0.26582095 0.28044015
-3.1668737 -0.1669811 0.2797249
-3.1687045 -0.063229799 0.27952459
-3.1685002 0.034993626 0.27943084
-3.1661043 0.13866512 0.27942145
-3.1641815 0.2369291 0.27971178
-3.1630452 0.33558676 0.28033221
-3.1612649 0.43467772 0.28116107
-3.1593661 0.53441906 0.28224805
-3.15797 0.63504213 0.28365213
-3.1596837 0.73747021 0.28561452
-3.1562006 0.83428156 0.28727761
-3.161767 0.93478119 0.29002428
-3.1495616 1.0316461 0.29143366
-3.1510549 1.1182104 0.29391378
15.875162 1.6753052 0.28457424
15.695899 1.7624127 0.28152168
15.774919 1.7179954 0.28285348
15.629592 1.8341848 0.28048122
15.540786 1.9552736 0.27915528
15.574898 1.9068222 0.27965781
15.52125 2.0316997 0.27898508
15.506252 2.1350081 0.2789703
-3.1477759 2.0604877 0.19537312
-3.1332943 2.0816629 0.19534054
15.510187 2.2410405 0.27931452
-3.1413863 2.1252525 0.19693916
-3.1333992 2.1664662 0.19778897
15.538568 2.3509822 0.28011972
-3.1415639 2.2351673 0.20016998
-3.1362236 2.2313302 0.19982377
15.579695 2.4369376 0.28109652
-3.1425412 2.3325503 0.20315102
-3.1335208 2.3377056 0.20293723
15.615753 2.4959242 0.28191131
15.688471 2.5611858 0.28340352
-3.1414943 2.4062717 0.2053912
-3.1329017 2.4504399 0.20643038
15.858956 2.6432657 0.28669748
-3.1438086 2.5622373 0.21046847
-3.1301615 2.5225303 0.2086266
-3.1422882 2.686029 0.21449661
-3.1314447 2.6231773 0.21197237
-3.1344466 2.7345889 0.21582614
-3.1331007 2.8366497 0.21927455
-3.1241803 2.935014 0.22237489
-3.1283462 3.0386612 0.22623304
-3.1214345 3.1350207 0.22947758
-3.1209223 3.2406721 0.2333651
-3.1268508 3.345475 0.23751439
-3.1256759 3.4462109 0.24131295
-3.1197875 3.5449674 0.24492361
-3.1171823 3.6384757 0.24849537
-3.1180468 3.7387087 0.25249597
-3.1154773 3.8381732 0.25639692
-3.1171708 3.9324121 0.26026851
-3.1130219 4.0223203 0.26381195
-3.1096957 4.1299872 0.26815331
-3.1132245 4.2355852 0.27266711
-3.1139314 4.3409104 0.27712187
-3.1064513 4.4382486 0.28102607
-3.1077297 4.534997 0.28520319
10.680874 4.7039604 0.20668885
10.757035 4.6949248 0.20789106
10.848201 4.6919193 0.20938845
10.994698 4.6904154 0.21182308
11.120375 4.6787395 0.21384309
-3.1083863 4.6336331 0.28947228
-3.1079884 4.7165742 0.29305637
0.084009066 4.8128681 0.24868883
0.37391216 4.8184319 0.2496237
0.59310943 4.8233271 0.25097129
0.69895184 4.8213191 0.25157875
0.78002352 4.8150353 0.2518791
0.89126492 4.8153028 0.25286537
0.99157101 4.8122268 0.25369653
1.0794803 4.8200431 0.25505212
1.1808304 4.8210301 0.25629824
1.2827295 4.8205233 0.25757897
1.3854101 4.8188305 0.25891456
1.4872127 4.8106971 0.26001623
1.5861989 4.8189836 0.26199913
1.6801231 4.8074579 0.26299766
1.7801424 4.8112473 0.26495242
1.8815178 4.8147202 0.26700941
1.9906244 4.8104696 0.26893196
2.0931098 4.8091412 0.2709637
2.186419 4.8052306 0.27276421
2.282932 4.8054428 0.27490973
2.3800614 4.8038597 0.27706096
2.4790466 4.8029318 0.27936465
2.5794449 4.8015881 0.28176168
2.6815979 4.800281 0.28428358
2.784514 4.797142 0.2868205
2.8909628 4.7967582 0.28965774
2.9853988 4.7912917 0.29201034
3.0902066 4.7997279 0.29534593
3.1885474 4.7948313 0.29796809
3.2427895 4.7903957 0.29936558
-2.9051511 4.8772588 0.29450575
-2.8214102 4.8677301 0.2918542
-2.7214053 4.8652296 0.28914613
-2.6248026 4.8656435 0.28672209
-2.5194504 4.8661885 0.28416383
-2.4146912 4.8643584 0.28158554
-2.3228595 4.8643966 0.27947348
-2.2207639 4.8610964 0.27704233
-2.1110978 4.8586783 0.27457601
-2.0034554 4.8565969 0.27226016
-1.9196296 4.8618813 0.27085799
-1.8228625 4.8560739 0.26873952
-1.721602 4.8589702 0.26704377
-1.6201372 4.8577204 0.26523504
-1.5188468 4.8527803 0.26333499
-1.4199077 4.850924 0.26171961
-1.3126777 4.8466034 0.25995401
-1.2106503 4.856379 0.25907919
-1.1137499 4.849297 0.25751114
-1.0193743 4.8483601 0.2563782
-0.91701055 4.8453622 0.25514674
-0.81632227 4.8461642 0.25423217
-0.71536952 4.8412466 0.25312373
-0.61586946 4.8402014 0.25233144
-0.51713651 4.8402138 0.25170276
-0.41877794 4.8395209 0.2511425
-0.32075906 4.8367996 0.25058061
-0.2152395 4.8373432 0.25027454
-0.10969254 4.8314362 0.24974716
-0.012838725 4.8309617 0.24963041
0.083947614 4.8311062 0.24964882
0.18079878 4.8335738 0.24989046
0.28570911 4.8307347 0.24997982
0.39916945 4.8350472 0.25059488
0.48826897 4.8325639 0.25086975
0.54507935 4.8314295 0.25110894
0.67584866 4.8328505 0.25201511
0.85804313 4.8400564 0.25384393
0.96762693 4.8326845 0.2545065
4.4217677 -4.5419264 0.3288072
4.5044656 -4.5362797 0.33165058
4.6867056 -4.537035 0.33851776
4.7799897 -4.5368304 0.34206238
4.8778019 -4.539052 0.34590316
4.9727774 -4.5366898 0.34950453
5.0718088 -4.5361652 0.35336486
5.1770787 -4.5392232 0.35763264
5.278018 -4.5363393 0.36155787
5.3719234 -4.5409889 0.36549073
5.4687786 -4.5463753 0.36959517
5.5848098 -4.5504775 0.37446618
5.6930251 -4.5458703 0.37876451
5.7959886 -4.5507078 0.38318858
5.8925557 -4.5486488 0.38715056
6.0011878 -4.5544229 0.39189562
6.0879831 -4.5575895 0.39566103
6.1653662 -4.5524502 0.39878315
0.45907232 -4.4798784 0.39142546
3.6139865 -4.4999084 0.29894054
3.6728644 -4.4966474 0.30075639
3.7723823 -4.4963226 0.3040795
3.88061 -4.503686 0.308063
3.9798305 -4.4975004 0.31125081
4.0899749 -4.5012484 0.31526864
4.1869464 -4.5027556 0.31878167
4.2845335 -4.5025339 0.32229599
4.3982081 -4.5169911 0.32699937
4.4989972 -4.5305362 0.33123407
4.5860658 -4.5279274 0.33438668
-0.89068735 -4.4374094 0.39473492
-0.81229442 -4.4355941 0.39322686
-0.71218288 -4.4385571 0.39190689
-0.61375612 -4.4479785 0.39136025
-0.51337683 -4.4411268 0.38956708
-0.41477114 -4.4418068 0.38863754
-0.31683701 -4.4454303 0.38815126
-0.21879539 -4.4440999 0.38742447
-0.11371136 -4.4451241 0.38706401
-0.016365856 -4.4490724 0.38718221
0.081030086 -4.4528837 0.38747892
0.1860808 -4.4530549 0.38766026
0.28347886 -4.4494739 0.38769239
0.38141695 -4.452301 0.38847697
0.49250257 -4.4569707 0.38971579
0.58606112 -4.457407 0.39063722
0.6853931 -4.4596896 0.39196119
0.78535676 -4.4613771 0.39342439
0.88531286 -4.4585896 0.39469463
0.95575726 -4.4616089 0.39612016
-3.2055295 -3.118468 0.39208266
-3.2199783 -3.069479 0.39006224
-3.2134302 -2.9613628 0.38326082
17.679974 -2.7058311 0.31876436
17.785828 -2.7830334 0.32085669
-3.2119102 -2.8610251 0.37734708
17.559093 -2.6271417 0.3164027
-3.2096865 -2.7630196 0.37162897
17.513189 -2.5007648 0.31527567
17.530752 -2.5630469 0.31573868
-3.2092404 -2.6601498 0.36587363
17.48233 -2.4367828 0.31457365
-3.209651 -2.560991 0.36050278
17.495222 -2.3493764 0.31460908
-3.2022414 -2.467339 0.35501048
17.501621 -2.2610891 0.31453285
17.520578 -2.2041416 0.31475466
-3.1964202 -2.3741753 0.34976107
-3.186429 -2.3366439 0.34713283
0.55741405 -2.344538 0.37866047
17.536112 -2.1466908 0.31491739
-3.1942894 -2.276196 0.34463969
-3.1888847 -2.2235987 0.34163883
0.55440843 -2.2311382 0.36098325
17.567184 -2.0910597 0.31536651
17.612509 -2.0369389 0.31607848
-3.1971543 -2.1652861 0.33939174
-3.1857738 -2.1735203 0.33897036
0.57336491 -2.1234725 0.34499198
17.661175 -1.9829376 0.3168543
17.713118 -1.9290137 0.31769273
-3.1999869 -2.080687 0.33556336
-3.1894188 -2.0561116 0.33365032
0.59794629 -2.0533638 0.33510557
0.62872851 -2.0083764 0.32945418
17.804981 -1.8790607 0.31926054
-3.2013714 -1.9593965 0.33008805
-3.1864526 -1.9680196 0.32938081
0.67937356 -1.9385407 0.34959638
0.73552501 -1.8925612 0.35133055
1.3767631 -1.8974442 0.36346257
1.4415835 -1.9650769 0.37812164
-3.2002814 -1.8187054 0.32384402
-3.1845636 -1.8607306 0.32447153
0.78205454 -1.8508708 0.34697622
0.85704374 -1.8138212 0.34800065
0.94960713 -1.7849883 0.35008982
1.0499572 -1.7786525 0.35056233
1.1532406 -1.7853705 0.32942396
1.2482468 -1.817179 0.34162608
1.3222106 -1.856961 0.35330698
-3.1983485 -1.7673507 0.32153466
-3.1853347 -1.7603744 0.3202599
0.97377527 -1.7676439 0.34901994
1.0479872 -1.7668464 0.36036354
-3.1825006 -1.6675782 0.31625304
-3.2085395 -1.556856 0.31397107
-3.1858234 -1.5692931 0.31267679
-3.2016487 -1.4333103 0.30892724
-3.1833799 -1.4714236 0.30884683
-3.184577 -1.3672417 0.30528992
-3.183152 -1.2643199 0.30178577
-3.1799021 -1.1629605 0.29840505
-3.185487 -1.0787405 0.29644328
-3.1929657 -0.99020851 0.29469573
-3.1544006 -0.27556083 0.39417437
-3.1611054 -0.14846286 0.39389929
-3.1657972 -0.051170275 0.39405236
-3.1621873 0.032616563 0.39354187
-3.1561155 0.12195496 0.39298564
-3.1620398 0.24772036 0.39451721
-3.1584616 0.29124328 0.39448813
-3.1589897 1.1614469 0.29580116
-3.1528816 1.2331181 0.29746276
-3.148809 1.3379019 0.30048376
-3.147764 1.4332728 0.30365676
-3.1492984 1.5319773 0.30735186
6.524313 1.6776462 0.3496989
-3.14817 1.631711 0.31106916
6.2542815 1.7746084 0.33720347
6.3157377 1.7357352 0.33979157
6.3986759 1.7018396 0.34357151
6.4793067 1.6889348 0.34753603
-3.1454365 1.7331115 0.31493151
6.1384039 1.8740277 0.33279312
6.1936779 1.8239434 0.334842
-3.1452074 1.8385106 0.31934822
6.0958567 1.9383526 0.33165595
-3.1446025 1.9394168 0.32373938
-3.1301804 1.9307331 0.32226714
6.0499663 2.0345433 0.3309291
6.0664101 2.0400939 0.33184573
-3.143342 2.0463495 0.32853189
-3.1308179 2.0298858 0.32685226
6.0359735 2.1303687 0.33188188
-3.1398649 2.1350346 0.33248162
-3.1344206 2.1592629 0.33325303
6.0351734 2.2203577 0.33346182
-3.1463509 2.230341 0.33760539
-3.1345704 2.2380745 0.33713952
6.0590239 2.3091748 0.33629993
6.0673742 2.3584709 0.33765236
-3.1437454 2.3336158 0.34261963
-3.1322439 2.3366327 0.34195781
6.1065741 2.4323151 0.34102631
-3.1424384 2.4152677 0.34673646
-3.1268437 2.4457624 0.34725818
6.1852231 2.5352011 0.3469409
-3.1452353 2.5284922 0.35294226
-3.131428 2.5306883 0.35211274
6.2629919 2.6036453 0.35214207
-3.1363761 2.6360779 0.35820714
-3.1440594 2.7056527 0.3625896
-3.1305482 2.7404225 0.36365491
-3.1435394 2.7980824 0.36779043
-3.1328011 2.8457861 0.36983696
-3.147404 2.9165788 0.37489861
-3.1273108 2.9475653 0.37543175
-3.1330931 3.0430317 0.3814863
-3.1246066 3.1379488 0.38670388
-3.1271868 3.2359965 0.3928979
21.454264 4.5384817 0.3928099
21.788134 4.5331154 0.39871401
22.127264 4.5265956 0.40471157
22.47744 4.520031 0.41090953
18.096466 4.5924091 0.33371523
18.30394 4.5801177 0.3373096
18.534508 4.5721545 0.34133288
18.76778 4.5633178 0.3454037
19.018068 4.5570097 0.34978902
19.276331 4.5509181 0.35431969
19.674452 4.5756302 0.36145067
19.939642 4.5671921 0.36610174
20.231457 4.562993 0.37124455
20.525381 4.5573134 0.37642285
20.822956 4.5504713 0.38166532
21.14204 4.5462675 0.38730311
4.4067063 4.76336 0.33660129
4.6180058 4.7666435 0.34442043
4.675684 4.7628937 0.34641233
4.8838949 4.76653 0.35436085
4.9797492 4.7650242 0.35795581
5.0795436 4.7652102 0.36180374
5.1981454 4.765039 0.36640567
5.2996936 4.7625861 0.37030429
5.391932 4.7658696 0.37406966
5.4814425 4.7650857 0.37761196
5.5863132 4.7600846 0.38165382
5.6978226 4.7586632 0.38612509
5.7829595 4.7493777 0.38928783
5.8891826 4.7558746 0.39387462
5.9902835 4.7565956 0.39808348
6.0475554 4.7534752 0.40036422
-3.1094935 4.769969 0.29542494
3.3018467 4.7921796 0.30120355
3.3951018 4.7911797 0.30397999
3.4904723 4.790782 0.3069019
3.5843561 4.7858963 0.30964065
3.682621 4.7845068 0.31272206
3.7843318 4.7849169 0.31604648
3.8877368 4.7848682 0.31946421
3.9854081 4.7750874 0.32234791
4.0911117 4.7887559 0.32650793
4.1788607 4.7787204 0.32914293
4.2713251 4.7723079 0.33212987
4.364562 4.7807946 0.33577299
4.4895644 4.7735543 0.33999109
4.5866866 4.7815118 0.34383693
4.7864294 4.7806149 0.35120949
-3.1015906 4.8452024 0.29849422
-3.013648 4.8692684 0.29710299
-2.9523036 4.880548 0.29592338
25.885294 -4.8679972 0.47142905
25.878061 -4.7771034 0.47102115
25.877817 -4.6876473 0.47074729
25.887177 -4.5554094 0.47052601
25.883648 -4.4210658 0.47007895
6.2288837 -4.552073 0.40147805
6.3001623 -4.5567002 0.40467152
6.3922157 -4.5596228 0.40871629
6.473835 -4.5537705 0.4120611
6.5910721 -4.5556798 0.41720769
6.6955123 -4.5633121 0.42199036
6.7551303 -4.5551391 0.42436033
6.8834863 -4.5598035 0.43014574
6.99716 -4.5694313 0.43545011
7.0655699 -4.5644226 0.43834361
7.1709213 -4.5658975 0.44308004
7.2782168 -4.5672297 0.44791922
7.390008 -4.569911 0.45301789
7.5009923 -4.5706129 0.45804566
7.5912557 -4.5744886 0.46223885
7.6603146 -4.5645299 0.46510676
7.7900567 -4.5727453 0.47124165
7.8897057 -4.579174 0.47597012
7.9733024 -4.5750995 0.47969857
8.1014109 -4.5780406 0.48567244
8.1990843 -4.5800552 0.49023479
8.2968273 -4.5810356 0.49478748
8.4039917 -4.5863099 0.49989772
8.4434853 -4.5716357 0.50136691
25.874636 -4.3305383 0.469666
-3.240886 -4.5446987 0.48811579
3.2010324 -4.4936662 0.4779872
3.2779953 -4.4909363 0.48170424
3.3838785 -4.4945049 0.48743275
3.4752614 -4.4913735 0.4920325
3.5547531 -4.501832 0.49701452
25.898052 -4.2455335 0.46985307
-3.2353168 -4.4577708 0.48171812
-3.0723941 -4.422091 0.47092718
-3.0122697 -4.4209414 0.46786007
-2.9153602 -4.4181929 0.46292344
-2.8196228 -4.419487 0.45844251
-2.7115238 -4.4148593 0.45306125
-2.6305749 -4.4173546 0.44956145
-2.5134616 -4.4158187 0.4442606
-2.419838 -4.4165702 0.44029498
-2.3222303 -4.4158444 0.43616533
-2.2172408 -4.4156098 0.43191054
-2.1080852 -4.4216738 0.42813927
-2.0090318 -4.4258604 0.42476517
-1.9163202 -4.4207044 0.42102125
-1.8200848 -4.4240956 0.41796777
-1.715807 -4.4258523 0.41466627
-1.6215824 -4.4273338 0.41182065
-1.519511 -4.4267941 0.40873119
-1.4131821 -4.4338379 0.40631565
-1.3145449 -4.4353318 0.40383384
-1.216804 -4.4357371 0.40144956
-1.1199108 -4.4353433 0.39918298
-1.0173845 -4.4396462 0.39736736
-0.93893814 -4.4425526 0.39606571
25.901352 -4.1572104 0.46967658
-3.238945 -4.3697085 0.47575459
-3.0948529 -4.4063468 0.47093749
-3.0172455 -4.4070978 0.46711171
-2.9531662 -4.4098287 0.46415517
-2.8634729 -4.4051738 0.45948195
-2.7578394 -4.4057078 0.45452964
-2.5695877 -4.4005842 0.44557977
-2.5320354 -4.4050303 0.44425559
-2.4126005 -4.4038935 0.43901831
-3.2326128 -4.2561774 0.46755815
-3.2297182 -4.1504169 0.4601419
-3.230227 -4.0520964 0.45348439
-3.2279425 -3.9530962 0.44668856
-3.2229869 -3.8669958 0.4406653
-3.2229562 -3.7630441 0.43379736
-3.2245097 -3.6514819 0.42660367
-3.2272403 -3.5569024 0.42066938
-3.2153466 -3.4495234 0.41313231
-3.221946 -3.3643839 0.40818
-3.2169423 -3.2588396 0.4013381
-3.2111895 -3.166374 0.39533269
25.916836 -2.6610689 0.46674317
25.919325 -2.5738106 0.46664646
9.2519665 -2.5933893 0.50195867
25.917475 -2.4861729 0.46647596
9.1964464 -2.5116241 0.4979721
9.2262611 -2.5529535 0.50007385
25.927032 -2.3559821 0.46645486
9.1706686 -2.4390006 0.4956581
25.92738 -2.2250116 0.46627656
9.1631212 -2.3391933 0.49394435
25.927225 -2.1377289 0.46615756
-3.1985905 -2.3453553 0.491301
-3.1875117 -2.3374212 0.48963928
0.55427247 -2.3290586 0.46238592
9.1672068 -2.2429929 0.49292517
25.923815 -2.050235 0.46598461
-3.1995261 -2.271672 0.48618189
0.55263662 -2.2229011 0.44212028
9.1904144 -2.1517258 0.49300259
9.2138338 -2.0927486 0.49351272
25.918652 -1.962677 0.46578503
-3.1955376 -2.1799726 0.47943211
-3.1882169 -2.1593134 0.47729465
0.57529867 -2.1199925 0.43342051
9.2487516 -2.0361664 0.4946712
25.945026 -1.8775132 0.46616304
-3.1959848 -2.0549304 0.47112218
-3.1896179 -2.1050558 0.47377512
0.59570432 -2.0595162 0.45215973
0.62714082 -2.0107765 0.44374698
9.2925272 -1.9812766 0.49632624
9.3454561 -1.9277818 0.49849734
25.938025 -1.7898767 0.4659403
-3.2005267 -1.9665118 0.46590966
-3.1910734 -1.9606361 0.46453491
0.6743319 -1.9456083 0.4505401
0.73110735 -1.8936896 0.46322444
1.3746533 -1.8944498 0.44595718
1.4340658 -1.9541583 0.46207324
25.9389 -1.6593137 0.46582294
-3.2032108 -1.8348243 0.45804039
-3.188303 -1.8701304 0.45860869
0.7764836 -1.8597208 0.45935205
0.85352415 -1.8142954 0.45617229
0.95113331 -1.7864102 0.45957035
1.060864 -1.780102 0.4582969
1.1515217 -1.786224 0.44138896
1.2388315 -1.8117946 0.43938127
1.3191503 -1.8524284 0.43314859
25.934122 -1.5285139 0.46561334
-3.1903322 -1.7701852 0.45283446
1.0400382 -1.7654159 0.46453959
25.93541 -1.4416294 0.46556148
-3.1840439 -1.6683197 0.44630361
25.945141 -1.3552185 0.46566796
-3.201344 -1.6010766 0.44446924
-3.1918404 -1.5602059 0.44124585
25.934999 -1.2677827 0.46541908
-3.2018878 -1.4997919 0.43918386
-3.1874526 -1.4552536 0.43532938
25.951328 -1.1816741 0.46565527
-3.2018709 -1.4071097 0.43454233
-3.1869817 -1.3552736 0.43038613
25.945467 -1.0510961 0.46546939
-3.1837912 -1.2645488 0.42584965
25.943785 -0.92078787 0.46536946
-3.1825604 -1.1638222 0.42135629
25.953564 -0.83431053 0.46550715
