# .PCD v0.7 - Point Cloud Data file format
VERSION 0.7
FIELDS x y z
SIZE 4 4 4
TYPE F F F
COUNT 1 1 1
WIDTH 1464
HEIGHT 1
VIEWPOINT 0 0 0 1 0 0 0
POINTS 1464
DATA ascii
-1.8971993 2.1962473 -0.25391078
1.6728451 2.1794505 -0.2403743
1.7408328 2.1340661 -0.24096446
3.8931134 2.1416152 -0.23286274
3.903183 2.1472275 -0.23347017
11.78196 2.1567976 -0.20907281
-3.057627 2.294379 -0.20034045
-1.8462242 2.2185528 -0.2525267
-1.7479712 2.2654381 -0.2503565
1.565863 2.2717369 -0.24139804
1.6394989 2.2266023 -0.24192874
3.7964602 2.2747319 -0.23194575
3.8991101 2.2135406 -0.23497605
3.9078858 2.2499115 -0.23632531
11.780769 2.2587914 -0.20937979
-3.0506041 2.3538551 -0.20193967
-1.7024189 2.3088257 -0.25097021
-1.6659116 2.3574915 -0.25256717
1.3863046 2.3857076 -0.24140412
1.459909 2.3480022 -0.2419111
1.522573 2.3068156 -0.2418189
3.7951994 2.3526106 -0.23401691
3.8045588 2.3583331 -0.23459053
3.9118042 2.3083014 -0.23803984
11.784157 2.341464 -0.20971429
-3.0522339 2.4545786 -0.20527121
-1.6149087 2.4113781 -0.25390965
-1.546815 2.4402621 -0.25278667
-1.464489 2.4818571 -0.25212535
1.193325 2.4962711 -0.24206698
1.2599761 2.4653809 -0.24224615
1.3450477 2.4257872 -0.24267703
1.4359397 2.4057081 -0.245114
3.7428372 2.4521983 -0.23450913
3.8063929 2.421699 -0.23643515
11.771028 2.4415882 -0.20983797
-3.0508177 2.54755 -0.20830341
-1.420424 2.5118668 -0.25246379
-1.3511028 2.5463679 -0.25221559
-1.2756954 2.5900645 -0.25259835
-1.1528656 2.5878172 -0.24785687
0.98226511 2.5930476 -0.24259633
1.057443 2.5680954 -0.24298954
1.1433524 2.5321758 -0.24308652
1.2215042 2.501137 -0.24352255
3.5912361 2.5652866 -0.23129362
3.6093855 2.5783167 -0.23246583
3.7074807 2.5465095 -0.23572274
11.785258 2.5477486 -0.21046445
-3.0498493 2.652617 -0.21183665
-1.2306151 2.619313 -0.25319564
-1.1345872 2.6096785 -0.24897246
-1.0518161 2.6422074 -0.24882239
-0.97397846 2.679122 -0.24940519
-0.84395641 2.6955111 -0.24711511
0.68749774 2.6948113 -0.24331799
0.75851858 2.679477 -0.24364696
0.85012573 2.6527302 -0.24372372
0.94585431 2.6233945 -0.24399285
1.0205472 2.6143723 -0.24553716
3.5951159 2.6230679 -0.23323101
3.6315875 2.6496015 -0.23560536
11.785172 2.6513424 -0.21085298
-3.0437136 2.7474692 -0.21489175
-0.92402315 2.7103484 -0.25053018
-0.85181212 2.720103 -0.24938419
-0.74904352 2.7439024 -0.24886362
-0.64601159 2.7626076 -0.24822609
-0.57502872 2.7724044 -0.24771999
-0.46622473 2.7835689 -0.24692819
-0.35218754 2.7863367 -0.245713
-0.05147744 2.7912619 -0.2442463
0.065643802 2.7959559 -0.24469835
0.16381204 2.7893023 -0.24446966
0.26158911 2.7884469 -0.2450341
0.35286203 2.7831752 -0.24546181
0.45328999 2.7631435 -0.24498844
0.55366713 2.7381246 -0.24441658
0.64749056 2.7237482 -0.24494797
0.72548401 2.710669 -0.24550244
3.5280201 2.7506125 -0.2344532
3.6097946 2.7276924 -0.2371185
11.776329 2.7532365 -0.21109965
-3.0445473 2.8422704 -0.21828397
-0.52882475 2.8090901 -0.25008303
-0.41784346 2.811764 -0.24870026
-0.34942722 2.8177485 -0.24842486
-0.25114208 2.8183124 -0.24756098
-0.1517974 2.8260131 -0.24761164
-0.052074086 2.8219938 -0.24695081
0.048821386 2.8211331 -0.24686609
0.14185743 2.8166821 -0.24674375
0.23930611 2.8105662 -0.2467984
0.35009623 2.8075476 -0.24753091
3.4424849 2.8549559 -0.23438466
3.5272324 2.8462448 -0.23753333
11.779088 2.8582199 -0.21157165
-3.0480001 2.9426799 -0.22203846
3.3601742 2.9523201 -0.2344178
3.4418793 2.9332428 -0.23700066
11.778921 2.9629364 -0.21200681
-3.0477839 3.0530722 -0.22608835
3.2864106 3.0474763 -0.23488975
3.3659432 3.0382192 -0.23763587
-3.0463834 3.155674 -0.22987214
3.1404591 3.1881948 -0.23453325
3.2413216 3.1395633 -0.23649889
-3.044992 3.251061 -0.23344569
3.0803807 3.26666 -0.23530978
3.1439996 3.2567563 -0.23723666
3.2087002 3.2141051 -0.23801571
-3.0449169 3.3508568 -0.23728624
2.9470401 3.3770785 -0.23489971
3.0377357 3.3428302 -0.23672718
-3.0413942 3.4384987 -0.24058302
2.8822927 3.4755385 -0.23663095
2.938143 3.4594431 -0.23787038
3.0096121 3.4139605 -0.23851487
-3.0451007 3.5372081 -0.24460861
2.7607722 3.5756621 -0.23675299
2.8540528 3.5370066 -0.23819266
-3.045342 3.647393 -0.24902257
2.675015 3.6585965 -0.23752728
2.7525389 3.6384637 -0.2391053
-3.0434029 3.7588122 -0.2534675
2.4720321 3.7728879 -0.23639382
2.561867 3.7434206 -0.23773138
2.6455739 3.7233257 -0.23937604
-3.0259702 3.8150299 -0.25519383
-2.9545848 3.8426812 -0.25403857
-2.876472 3.8874068 -0.25344068
2.353642 3.869149 -0.2373465
2.4415379 3.8477688 -0.23882964
2.5240369 3.8101194 -0.239521
-2.8254726 3.9137144 -0.25297576
-2.7495716 3.9462967 -0.25207201
-2.6737068 3.9779832 -0.25119218
2.1750302 3.9853592 -0.23794691
2.263757 3.963341 -0.23921108
2.3489156 3.9354386 -0.24019942
-2.6268611 4.0090847 -0.25119358
-2.5471654 4.0484109 -0.2506749
-2.4709468 4.0927587 -0.25055361
2.0437992 4.0576024 -0.23810591
2.1420391 4.0480304 -0.24002384
2.2031946 4.0209899 -0.24029045
-2.4229167 4.1218033 -0.25057217
-2.3492448 4.1543779 -0.25012714
-2.2758214 4.1867824 -0.24974167
1.8655386 4.1687484 -0.2393592
1.954945 4.1551585 -0.24066538
2.0422349 4.1253023 -0.24124873
-2.2272723 4.2146282 -0.24982679
-2.1486585 4.2539582 -0.24977049
-2.0855212 4.2885199 -0.24991862
1.5529345 4.2939935 -0.23930292
1.6658827 4.2803187 -0.24071625
1.7559804 4.2444978 -0.24073295
1.8490168 4.2226133 -0.24158843
-2.0342517 4.3109779 -0.24982166
-1.9479862 4.3529763 -0.24993625
-1.8688588 4.3915892 -0.25012815
1.3113414 4.3940663 -0.24031907
1.4406626 4.3739805 -0.24134997
1.545562 4.3555617 -0.24221425
1.6180695 4.3370862 -0.24260084
1.7088773 4.3135834 -0.24315853
-1.8211718 4.4228702 -0.2506744
-1.7488467 4.4581542 -0.25098112
-1.6818205 4.4851351 -0.25103796
1.0036635 4.4964814 -0.24144931
1.141106 4.4725757 -0.24190871
1.2458093 4.4446363 -0.24191315
1.3437504 4.4394927 -0.24309403
1.4399536 4.4166336 -0.24346539
1.5034062 4.4339633 -0.24536803
-1.634114 4.5185156 -0.25181797
-1.5550524 4.5612016 -0.25255677
-1.48707 4.5872993 -0.25272724
-1.2268509 4.5533581 -0.24714403
-1.1549954 4.5917082 -0.24813983
0.59434694 4.578712 -0.24197294
0.62769634 4.5940561 -0.24300177
0.77257222 4.565124 -0.24265119
0.8433432 4.5650554 -0.24329865
0.94457316 4.5533133 -0.24371321
1.0478792 4.5277667 -0.24356711
1.1548076 4.5269547 -0.24485733
1.2204591 4.5294752 -0.24584556
10.908571 4.5775194 -0.20649466
-1.4288552 4.6179338 -0.25333837
-1.3469044 4.6553798 -0.25398806
-1.1123825 4.6180873 -0.24894555
-1.0530053 4.6445112 -0.24959122
-0.9723196 4.6877561 -0.25090533
-0.80515778 4.6165848 -0.24559669
-0.74633121 4.6471372 -0.24667212
-0.66432142 4.6864901 -0.24806523
-0.43780026 4.649838 -0.2447668
-0.38023853 4.6832352 -0.2462474
-0.14105579 4.6746173 -0.24510147
-0.086597316 4.6958461 -0.24614035
0.070288114 4.6571426 -0.24409886
0.12572753 4.6842527 -0.24558105
0.27240291 4.6367636 -0.24342203
0.34500501 4.6671314 -0.24526502
0.44705108 4.6390328 -0.24425347
0.54900569 4.656074 -0.24570858
0.67897433 4.6220207 -0.24483006
0.72989076 4.6434617 -0.24634208
0.86846256 4.6129894 -0.24600415
10.886135 4.675787 -0.20680422
10.914895 4.6448555 -0.20705357
-0.9207651 4.7168255 -0.25186482
-0.86775166 4.7405653 -0.25257185
-0.61909264 4.7076626 -0.24884239
-0.55124813 4.7449603 -0.25035062
-0.49084842 4.7832794 -0.25199711
-0.33607334 4.7090163 -0.24741948
-0.2473722 4.7576966 -0.24968234
-0.039600588 4.7301426 -0.24790737
0.023939272 4.7544513 -0.24917398
0.18186772 4.7139177 -0.24723031
0.23084866 4.7439332 -0.24891376
0.43707442 4.7268667 -0.24878098
10.437349 4.7339311 -0.20004752
10.549685 4.7422981 -0.2018947
10.623858 4.7328877 -0.20300938
10.708871 4.7277932 -0.2043298
10.868101 4.7328916 -0.20691127
3.64886 -4.5011978 -0.1011422
3.762569 -4.5061631 -0.1024693
4.0511584 -4.5032458 -0.10573113
4.2484088 -4.5052323 -0.10808939
4.3326159 -4.5028687 -0.1090735
4.560739 -4.5226121 -0.11211336
4.6528687 -4.5220294 -0.11325382
4.7511983 -4.5255628 -0.11453342
4.8499379 -4.5274606 -0.1158101
4.9470944 -4.5259004 -0.11703712
5.0438385 -4.5220461 -0.11824363
5.1540189 -4.5281515 -0.11975279
5.264864 -4.5325375 -0.12126298
5.3499813 -4.5283337 -0.12234506
5.4437699 -4.5298724 -0.12361661
5.5541863 -4.5279856 -0.12508337
5.6471386 -4.5255604 -0.12631832
5.7551937 -4.5334115 -0.12788062
5.8545847 -4.5327382 -0.12924042
5.9393783 -4.5350275 -0.13043813
6.0423794 -4.5339622 -0.13186078
6.1445951 -4.5307002 -0.13325806
6.2341938 -4.5325556 -0.13453907
6.3530908 -4.5380211 -0.13627888
6.4675026 -4.5384388 -0.13791269
6.5653386 -4.5416908 -0.13934633
6.6570778 -4.5394745 -0.1406444
6.756218 -4.5409575 -0.1420919
6.8417578 -4.5321722 -0.1432488
6.954546 -4.5400748 -0.14496952
7.0633764 -4.5438681 -0.1465997
7.1646066 -4.5413418 -0.14806522
7.2502189 -4.5447187 -0.14936063
7.3247252 -4.5402422 -0.15042314
7.4391179 -4.5423632 -0.15214323
7.5571346 -4.5451708 -0.15393037
7.6636581 -4.5569291 -0.15563129
7.7398758 -4.5496902 -0.15671241
7.8535652 -4.5459094 -0.15839331
7.956481 -4.552268 -0.16000544
8.0360765 -4.5442753 -0.16114435
8.1308165 -4.5440755 -0.16258392
8.2417631 -4.5518026 -0.16434252
8.3453608 -4.554431 -0.16594951
8.4395638 -4.5508404 -0.16736519
8.5437508 -4.551774 -0.16897553
8.6567879 -4.5561833 -0.17075548
8.7507391 -4.5496459 -0.17215545
8.8621044 -4.5510464 -0.17389388
9.0274477 -4.5597172 -0.17653432
9.1428232 -4.5604596 -0.17833978
9.2144079 -4.5576491 -0.17943703
9.3393955 -4.5611 -0.18142182
9.4416809 -4.5524416 -0.18296184
9.5409145 -4.5609264 -0.18458742
9.6106987 -4.5547624 -0.18564104
9.7502937 -4.5609303 -0.18789168
9.8883896 -4.5651398 -0.19010833
9.9721718 -4.5633206 -0.19142386
10.056227 -4.56107 -0.19274274
10.159893 -4.5670791 -0.19443506
10.229822 -4.5573463 -0.19547981
10.320723 -4.5564322 -0.19692378
10.452629 -4.5728526 -0.19914696
3.5726254 -4.4887381 -0.10013843
3.6573949 -4.4860573 -0.1010315
3.7646723 -4.4881358 -0.10225245
3.8555634 -4.4935908 -0.10335092
3.9474454 -4.4928365 -0.10439282
4.0967975 -4.4930763 -0.10613393
4.1549339 -4.4958386 -0.10685609
4.352282 -4.4930286 -0.10918836
4.4391284 -4.4914684 -0.11022887
9.5156879 -2.7186055 -0.17274241
9.3887339 -2.614368 -0.17011568
9.43995 -2.662766 -0.17120446
9.3565655 -2.5548151 -0.16929828
9.2903681 -2.4199204 -0.16757469
9.3207436 -2.4779801 -0.1683456
0.66916901 -2.357173 -0.12841547
9.275197 -2.3496826 -0.16701378
-3.0900898 -2.2151685 -0.19925727
0.66478813 -2.2556536 -0.12324216
9.2704859 -2.2495017 -0.16651307
-3.0824821 -2.1478066 -0.19689701
0.68229216 -2.1438324 -0.15065919
0.71265209 -2.1018095 -0.19416691
9.2866726 -2.1711664 -0.16647066
9.3063602 -2.1264591 -0.16662951
-3.081929 -2.049165 -0.19396499
0.69528747 -2.0889463 -0.16676433
0.72968793 -2.0376883 -0.14785343
9.3331976 -2.0504193 -0.16679755
-3.0822291 -1.9465847 -0.19105412
0.77729744 -1.9655764 -0.14783293
0.83155018 -1.9168934 -0.15197361
1.4982888 -1.9218479 -0.12771112
1.5607644 -1.9882015 -0.13246746
9.3839712 -1.9792821 -0.16740145
9.4207726 -1.9375905 -0.16788217
-3.0822971 -1.8469275 -0.18832004
0.87307125 -1.8773866 -0.13754313
0.94758636 -1.8336693 -0.14551644
1.0337393 -1.8081801 -0.14286174
1.2678897 -1.8047893 -0.14885196
1.3384987 -1.820381 -0.1513443
1.4323313 -1.8691838 -0.12341428
9.4834824 -1.8842957 -0.1687707
9.5558901 -1.8321433 -0.16983677
9.6578102 -1.8014137 -0.17148489
-3.0816994 -1.7496586 -0.18572405
1.0610493 -1.7920179 -0.14565007
1.1472068 -1.7861606 -0.14999464
1.2395011 -1.7925693 -0.15246321
9.7406483 -1.7830912 -0.17284866
-3.0847967 -1.6502454 -0.18335208
-3.0769992 -1.547845 -0.18051603
-3.0816772 -1.447948 -0.17844923
-3.0787888 -1.3470131 -0.17612335
-3.0802233 -1.2563367 -0.17434373
-3.0789788 -1.1546537 -0.17234202
-3.0793831 -1.0499927 -0.17051344
-3.0809634 -0.94775635 -0.16893953
-3.074403 -0.84505427 -0.16710442
-3.080229 -0.74747097 -0.16611902
-3.07198 -0.64797139 -0.16454405
-3.0777426 -0.55283505 -0.163885
-3.0706277 -0.45111108 -0.16265944
-3.0681121 -0.34610543 -0.16182005
-3.069562 -0.24755979 -0.16139708
-3.0721412 -0.14944443 -0.16120173
-3.0687888 -0.046334513 -0.16085395
-3.0734589 0.046368189 -0.16109872
-3.0646338 0.14910568 -0.16080788
-3.0670233 0.24733329 -0.16126348
-3.0702512 0.34632403 -0.16193275
-3.0645127 0.45021811 -0.16233554
-3.0668082 0.55085748 -0.16330262
-3.0595403 0.64543176 -0.16387862
-3.064651 0.74915862 -0.16534814
-3.0612898 0.85247821 -0.16654578
-3.0607812 0.95273662 -0.1680062
-3.0598202 1.0490096 -0.16952525
-3.0610764 1.1479211 -0.17133963
-3.0655403 1.2503642 -0.173513
-3.0575862 1.3438549 -0.17504045
-3.059793 1.4502398 -0.17746325
-3.0615981 1.5529224 -0.17991558
-3.0569768 1.6485265 -0.18202499
-3.0502439 1.7452592 -0.18417765
6.3681006 1.7731892 -0.11538458
6.4547806 1.7275344 -0.11663428
6.5487623 1.7057972 -0.11812308
6.622839 1.7014014 -0.11935566
-3.0517967 1.8495505 -0.18702319
6.2586722 1.856313 -0.11395057
6.3189535 1.8053073 -0.1147107
-3.0521774 1.9564043 -0.19000156
6.1832838 1.958756 -0.11321624
6.2216015 1.9136703 -0.11361938
-3.0547817 2.0533159 -0.19290192
6.1433072 2.0485952 -0.11303793
-3.0566132 2.152703 -0.19593501
6.0971508 2.193491 -0.11310361
6.1244421 2.1455395 -0.11327329
-3.0493908 2.2407019 -0.19831903
6.1242943 2.261446 -0.11395576
6.1492362 2.3530328 -0.1149255
6.186224 2.4387729 -0.1160692
6.2150865 2.4984059 -0.11692183
6.2528806 2.5379846 -0.11779227
6.3083181 2.5851548 -0.11899921
6.4158845 2.6543941 -0.12119552
3.1744215 4.7919865 -0.10033283
3.2565615 4.7928133 -0.10114397
3.3485341 4.7887611 -0.10199688
3.457526 4.7891507 -0.10310405
3.5417333 4.7863808 -0.10393272
3.6440086 4.7888899 -0.10503928
3.7456241 4.7877817 -0.1061075
3.8510509 4.7888174 -0.10726529
3.9539616 4.7839813 -0.10833497
4.0546136 4.7902007 -0.10954509
4.1455545 4.7826376 -0.11047786
4.2495217 4.7879481 -0.11174387
4.3434658 4.7795424 -0.11273079
4.4481926 4.7809453 -0.11398578
4.551177 4.7778678 -0.11517925
4.6555619 4.7740693 -0.11639557
4.7488608 4.7727213 -0.11752167
4.8495216 4.776835 -0.11881787
4.9461412 4.7749228 -0.12000203
5.0454764 4.7737217 -0.12124106
5.1510825 4.7763729 -0.12261809
5.2544937 4.7748494 -0.12392989
5.350966 4.7812781 -0.12525569
5.4397197 4.7791619 -0.12639104
5.5440536 4.7728724 -0.12769318
5.6595321 4.774034 -0.12924053
5.7566595 4.7739897 -0.13054019
5.8568702 4.7747684 -0.13190025
5.9491806 4.7676334 -0.13307478
6.0596156 4.7732444 -0.13464528
6.1594343 4.7687864 -0.13597031
6.2508779 4.7728682 -0.13727911
6.3536091 4.7675014 -0.13865268
6.465416 4.7672882 -0.14021604
6.5597029 4.7692175 -0.14156383
6.6478338 4.7654982 -0.14277311
6.7378373 4.7619209 -0.1440168
6.8423147 4.767303 -0.14556356
6.9335394 4.762116 -0.14682159
7.037982 4.7646885 -0.1483531
7.1326795 4.7593622 -0.1496731
7.2353277 4.7580614 -0.15115431
7.3475237 4.7615614 -0.15282759
7.4605045 4.7640667 -0.15450981
7.5646648 4.7594461 -0.15600225
7.675498 4.757678 -0.15762684
7.7625341 4.7577772 -0.15892081
7.8273892 4.7614989 -0.15992083
7.9212909 4.7641792 -0.16134773
8.0342751 4.7590442 -0.16299522
8.1504936 4.7543249 -0.16470231
8.2439795 4.7535181 -0.16610661
8.3380451 4.7519951 -0.16751811
8.4640446 4.7488933 -0.16940589
8.5874605 4.7615662 -0.17139478
8.644928 4.7556047 -0.17222255
8.7400446 4.7507715 -0.17363903
8.8313808 4.7430949 -0.17497773
8.9574089 4.7528405 -0.17699872
9.0686855 4.753644 -0.17872305
9.127532 4.7455473 -0.17956822
9.2466412 4.748498 -0.18143916
9.3724241 4.7537341 -0.18343604
9.434721 4.7456279 -0.18434285
9.5510101 4.744029 -0.18614629
9.6883535 4.7517099 -0.18835512
9.7412748 4.7372146 -0.18907411
9.8302841 4.7398124 -0.19049223
9.9553738 4.7384996 -0.19245175
10.140417 4.7434521 -0.19540973
10.293241 4.7520461 -0.19789177
10.357887 4.7398262 -0.19882797
3.4214871 4.8068652 -0.10298847
-3.1130862 -4.5490875 -0.096218169
-3.1123545 -4.4353495 -0.094578765
-2.9448609 -4.4454131 -0.093077339
-2.8498001 -4.4462276 -0.092182919
-2.7557654 -4.4457078 -0.091300324
-2.6532826 -4.4451127 -0.090361714
-2.5534976 -4.445591 -0.08948873
-2.4464753 -4.4471393 -0.088597238
-2.3421395 -4.4498973 -0.087776065
-2.247118 -4.4487162 -0.086997524
-2.1585124 -4.4575629 -0.086450197
-2.0566919 -4.4547443 -0.085646309
-1.9477605 -4.4520826 -0.084824286
-1.8533697 -4.4584551 -0.084279694
-1.7540913 -4.4493728 -0.083482735
-1.6528745 -4.4532027 -0.082913719
-1.5520258 -4.4541297 -0.082333006
-1.4514633 -4.4517608 -0.081732899
-1.3537334 -4.4541898 -0.08126086
-1.2509552 -4.4633055 -0.080911137
-1.1472173 -4.4654546 -0.080477171
-1.0509191 -4.4612923 -0.080004744
-0.94899666 -4.4620471 -0.079629026
-0.84835887 -4.4650817 -0.07933376
-0.74778432 -4.4639163 -0.079005316
-0.64729375 -4.458395 -0.078638673
-0.54861408 -4.4602461 -0.078442268
-0.45063317 -4.4650564 -0.078334928
-0.35236219 -4.4628053 -0.078142628
-0.2471166 -4.4620104 -0.078005679
-0.14968498 -4.4631152 -0.077948935
-0.052382801 -4.4639921 -0.077926278
0.052398179 -4.4626513 -0.077902868
0.15011254 -4.4754319 -0.078164048
0.24745379 -4.4682264 -0.078114338
0.35369131 -4.4792018 -0.078429766
0.45111918 -4.4697018 -0.078416474
0.54966825 -4.4689069 -0.07859455
0.64995569 -4.4766903 -0.07896138
0.74852455 -4.4682555 -0.079082154
0.84966159 -4.4719524 -0.079455838
0.95098096 -4.4713197 -0.079794541
1.0543274 -4.4756255 -0.080261908
1.1503175 -4.4774785 -0.080693923
1.2292645 -4.4724092 -0.080961727
3.545382 -4.4852905 -0.099795766
-3.1124241 -4.3418813 -0.093248688
-3.1090364 -4.2462811 -0.091862649
-3.109519 -4.1585507 -0.090636641
-3.1105134 -4.0597014 -0.08927162
-3.1083894 -3.9461696 -0.087683894
-3.1049473 -3.8479662 -0.086305819
-3.1057637 -3.7707558 -0.085270226
-3.0973496 -3.7094972 -0.084353082
-3.1127553 -3.665154 -0.083934829
-3.1025939 -3.5795255 -0.082684495
-3.0966139 -3.5245972 -0.081893459
-3.1010506 -3.4588451 -0.081086472
-3.0998402 -3.4576685 -0.081057988
-3.103842 -3.3473916 -0.079682119
-3.099901 -3.3997693 -0.080308013
-3.1049125 -3.2489343 -0.078444079
-3.0963745 -3.2398093 -0.078224868
-3.1071389 -3.1438289 -0.077154376
-3.0951958 -3.1458962 -0.077034377
-3.1053922 -3.0539112 -0.076025262
-3.0874329 -3.0616739 -0.075896487
-3.105428 -2.9580212 -0.074860692
-3.0964336 -2.949609 -0.074646793
-3.1047957 -2.8535309 -0.073608212
-3.0891294 -2.8325961 -0.07315854
-3.1065021 -2.766515 -0.072609931
-3.091084 -2.734283 -0.072035179
-3.1031303 -2.6355696 -0.071065448
-3.0924017 -2.6669154 -0.071279407
-3.1060281 -2.5149353 -0.069759712
-3.0949798 -2.5580401 -0.070087656
-3.0856476 -2.4391389 -0.068656527
-3.0875573 -2.3494382 -0.067722872
0.66854447 -2.3549731 -0.042730458
-3.082232 -2.249017 -0.066601634
0.66419077 -2.2535532 -0.041009225
-3.0829725 -2.1481283 -0.065589242
0.68307883 -2.1444631 -0.039285928
-3.0849912 -2.0512092 -0.064666733
0.69792992 -2.0813105 -0.038317528
0.72902018 -2.0376966 -0.037777986
1.5836195 -2.0173159 -0.044766013
-3.0773323 -1.9434992 -0.063531928
0.77773285 -1.9633321 -0.036862276
0.82534969 -1.9216359 -0.036506262
1.4974111 -1.9207221 -0.042510863
-3.0826399 -1.8471251 -0.062729247
0.87301195 -1.8714502 -0.036047738
0.94918889 -1.8352386 -0.036069319
1.0344828 -1.8068773 -0.036343776
1.2652912 -1.8030857 -0.038448978
1.3437822 -1.8222115 -0.039521061
1.4318419 -1.8685639 -0.041090883
-3.083488 -1.7506294 -0.061893232
1.0629925 -1.7924277 -0.036378957
1.1504836 -1.7881274 -0.037116159
1.2422708 -1.7911265 -0.038049769
-3.0828519 -1.6491814 -0.061029002
-3.0796909 -1.5491632 -0.06017543
-3.0817735 -1.4543229 -0.059483197
-3.0786035 -1.3531344 -0.058700435
-3.0782433 -1.2495599 -0.057991222
-3.0742841 -1.1470263 -0.057276811
-3.0772843 -1.0492495 -0.056752756
-3.0729005 -0.94526142 -0.05612009
-3.0738451 -0.84491611 -0.055646181
-3.0798001 -0.74742222 -0.055320524
-3.0783947 -0.64938164 -0.054918095
-3.0726683 -0.55188531 -0.054493833
-3.0754399 -0.45180407 -0.05426063
-3.0695183 -0.3514705 -0.053930677
-3.0707746 -0.25285333 -0.053784389
-3.0689628 -0.14932849 -0.053634733
-3.0704989 -0.046342507 -0.053604268
-3.0717146 0.046349637 -0.053625487
-3.0736558 0.14953096 -0.053716727
-3.0668519 0.2524913 -0.053715624
-3.0688777 0.35139221 -0.053919412
-3.0642371 0.45014358 -0.05406294
-3.0636268 0.5555135 -0.054350238
-3.0654008 0.65733171 -0.054725107
-3.0648637 0.7491644 -0.055073962
-3.0642807 0.84778148 -0.055499036
-3.0641291 0.95378852 -0.056017816
-3.062721 1.0499959 -0.056515981
-3.0640929 1.1490934 -0.057123285
-3.0594072 1.2538613 -0.057715137
-3.0568271 1.3496568 -0.058327701
-3.0569067 1.4489141 -0.059050918
-3.0617335 1.5530407 -0.059926171
-3.0621541 1.6513039 -0.060728252
-3.0597968 1.7507858 -0.061535306
-3.0599525 1.8474919 -0.062393181
-3.0514574 1.9487302 -0.063200049
-3.0579586 2.0554459 -0.064315163
-3.0536847 2.1506715 -0.065196395
-3.0536511 2.2597005 -0.066310033
-3.049542 2.3529553 -0.067233488
-3.0510192 2.4536536 -0.068342261
-3.054296 2.5590894 -0.069553502
-3.0517366 2.6542938 -0.0705989
-3.0499706 2.7531266 -0.071719624
-3.0493309 2.8467641 -0.072816752
-3.046289 2.9410121 -0.073910981
-3.0492401 3.0443025 -0.075210884
-3.0456829 3.1444128 -0.076412305
-3.0425034 3.2483926 -0.077688307
-3.045162 3.3511164 -0.079037376
-3.0395706 3.4481385 -0.080234572
-3.0455532 3.5496666 -0.081639759
-3.0448282 3.6467595 -0.082925841
-3.0435183 3.7460728 -0.084248804
-3.040091 3.8329141 -0.085393719
-3.043349 3.9583595 -0.087154925
-3.0369873 4.0615592 -0.088522606
-3.0393689 4.1511269 -0.08980412
-3.0379949 4.2531867 -0.091233931
-3.0395575 4.362618 -0.092810191
-3.0409572 4.4595833 -0.094217636
-3.03631 4.5505128 -0.095488109
-3.0372436 4.6525626 -0.09698379
-3.0385303 4.758431 -0.098548464
0.18502891 4.7962475 -0.083780959
0.47575173 4.7942772 -0.084095314
0.96992815 4.7972722 -0.08543092
1.0704165 4.7954979 -0.085766017
1.1548752 4.7942734 -0.086079217
1.4910707 4.7904339 -0.087574244
1.5543773 4.7946367 -0.087980613
1.6482923 4.7949309 -0.088503875
1.7354097 4.7984986 -0.08906763
1.864202 4.799396 -0.089871339
1.9370632 4.7953138 -0.090274535
2.0466609 4.7871189 -0.090875782
2.1355562 4.7934365 -0.091598764
2.2534394 4.7962165 -0.09249866
2.3429666 4.7973442 -0.093191482
2.4423366 4.7952204 -0.093933091
2.5228596 4.7932787 -0.094548762
2.6397657 4.7920861 -0.095499046
2.7531238 4.7931108 -0.096484348
2.847409 4.7885518 -0.09724573
2.9491031 4.7933955 -0.098237231
3.0276618 4.79422 -0.09897387
3.11696 4.7920384 -0.099782944
-3.0282736 4.8310437 -0.099523604
-2.9511237 4.8329844 -0.098844841
-2.8510809 4.8315082 -0.09792351
-2.7523227 4.8291163 -0.097022928
-2.650449 4.8370919 -0.096276879
-2.542726 4.8310266 -0.095293865
-2.4501579 4.8307018 -0.094546653
-2.3585856 4.829349 -0.093813635
-2.2506826 4.8323655 -0.093050681
-2.1545782 4.8363395 -0.092417434
-2.053005 4.8241696 -0.091515601
-1.9465145 4.8186994 -0.090714812
-1.8577631 4.8306103 -0.090340041
-1.7540492 4.8246331 -0.089608528
-1.6454502 4.8260913 -0.089002751
-1.5467039 4.8262334 -0.08846347
-1.4494845 4.8272572 -0.087977983
-1.3522766 4.8249402 -0.087465711
-1.2558069 4.8210883 -0.086961769
-1.1537472 4.8250613 -0.086597323
-1.0510837 4.8227134 -0.086158156
-0.94948024 4.8206401 -0.085762471
-0.84953719 4.8230233 -0.085483462
-0.74985117 4.8230119 -0.085198648
-0.64991814 4.8169417 -0.084843151
-0.55149394 4.8168101 -0.084628284
-0.45408019 4.8225284 -0.084551126
-0.35607973 4.8183389 -0.084335029
-0.25066033 4.8180308 -0.084214553
-0.1454563 4.8194566 -0.084163487
-0.048441444 4.8152661 -0.084056288
0.048388142 4.8079247 -0.083928145
0.13731113 4.8167143 -0.084111027
0.2504383 4.8144622 -0.08415214
0.35561061 4.8120122 -0.084224291
0.44871759 4.8173561 -0.084452525
0.55110657 4.8133082 -0.084566779
0.64900917 4.8101902 -0.084724247
0.74767178 4.8090315 -0.084951676
0.84673709 4.8072696 -0.085204162
0.94339859 4.8152914 -0.085650429
1.0361359 4.8121777 -0.085922815
1.1405121 4.8053374 -0.086208761
1.2540483 4.8142943 -0.086839259
1.3564328 4.8086047 -0.087211303
1.4428289 4.8051949 -0.087574907
1.5589637 4.8088932 -0.088240385
1.6279774 4.8013587 -0.08849439
1.7568222 4.8069496 -0.089335971
1.8430893 4.8044496 -0.089822017
1.9960486 4.8017888 -0.090768531
2.0543351 4.804872 -0.091214657
2.1574261 4.8064351 -0.091961376
2.2084482 4.8047752 -0.092302516
2.3474686 4.806457 -0.093369775
2.5643997 4.8068194 -0.095097415
2.6640801 4.804635 -0.095894635
3.0786984 4.8033848 -0.099587046
-3.1136408 -4.549891 0.096235216
-3.1141179 -4.4378681 0.094632424
-2.9461098 -4.447289 0.093116663
-2.8479915 -4.4434123 0.092124522
-2.7572308 -4.4480829 0.091349043
-2.6477768 -4.4527726 0.090427853
-2.5459867 -4.4497943 0.089486808
-2.4557254 -4.4463534 0.088662714
-2.3503716 -4.4474196 0.087805294
-2.2479203 -4.4503317 0.087029003
-2.1439221 -4.4463334 0.086163349
-2.0458319 -4.4508915 0.085505471
-1.9445394 -4.4447093 0.084683828
-1.8489058 -4.4477057 0.084076539
-1.7564598 -4.4554448 0.083596498
-1.6536754 -4.4553204 0.082953244
-1.5507054 -4.4502988 0.082262285
-1.4523305 -4.4544826 0.081782773
-1.3522568 -4.4492726 0.081171252
-1.2576425 -4.4585133 0.080861695
-1.1521584 -4.4538193 0.080302529
-1.0507243 -4.4602904 0.079986937
-0.94900513 -4.4621568 0.079630934
-0.84657389 -4.4557471 0.079167865
-0.74745303 -4.4620819 0.078972779
-0.64809006 -4.4640622 0.078738548
-0.54898536 -4.4633632 0.07849706
-0.45019022 -4.4608269 0.078260712
-0.35219002 -4.4609976 0.078110933
-0.24724603 -4.4646726 0.0780522
-0.14984956 -4.4679747 0.078033805
-0.052449521 -4.4696198 0.078024514
0.052440401 -4.4654431 0.077951618
0.14997201 -4.4701133 0.078071177
0.24767216 -4.4717207 0.07817544
0.35335895 -4.4747748 0.07835228
0.45114589 -4.4698963 0.078419901
0.54941809 -4.4671092 0.078562871
0.64857578 -4.4674602 0.078798465
0.74907297 -4.4714656 0.079138994
0.85021812 -4.474896 0.079508133
0.94421738 -4.4765949 0.079859681
1.045172 -4.4703512 0.080136254
1.1495999 -4.4747396 0.080644496
1.2307492 -4.477879 0.081060663
3.5400596 -4.4940114 0.099857852
-3.1096494 -4.3380151 0.093165614
-3.1091499 -4.2464719 0.091866493
-3.1119804 -4.1618381 0.090708315
-3.1070364 -4.05516 0.089171782
-3.1121681 -3.9645863 0.087977074
-3.1088734 -3.8661387 0.086596116
-3.1090066 -3.7618697 0.085186884
-3.1090665 -3.6608186 0.083835468
-3.1061335 -3.5474281 0.082302831
-3.0928869 -3.5804064 0.082585134
-3.1020763 -3.4329796 0.080763467
-3.0976818 -3.4668181 0.081151292
-3.1075296 -3.3476565 0.079729438
-3.0947335 -3.3487217 0.079590596
-3.1089318 -3.2748604 0.078819051
-3.0982876 -3.2491932 0.078367092
-3.1040783 -3.140732 0.07707838
-3.0954828 -3.1585815 0.077196136
-3.1021998 -3.0353816 0.075758345
-3.0962272 -3.0807319 0.076239936
-3.1069293 -2.9694138 0.075017035
-3.0947707 -2.941437 0.074527599
-3.1014557 -2.8662615 0.073714286
-3.0926096 -2.8422956 0.07331834
-3.1052539 -2.7467408 0.072364107
-3.0929692 -2.7471974 0.072210327
-3.1029813 -2.6714206 0.071469769
-3.0956082 -2.6426861 0.071046486
-3.1026101 -2.5382206 0.069970891
-3.0885918 -2.5528154 0.069943801
-3.0865839 -2.4482827 0.068768062
-3.0852337 -2.3478007 0.067674048
0.66685897 -2.3342192 0.042374052
-3.0840273 -2.2423971 0.066558532
0.66464359 -2.2409945 0.040801071
-3.0875094 -2.1436367 0.065609887
0.68437916 -2.1484885 0.039359771
0.70506871 -2.1025994 0.038709462
-3.1028845 -2.0930998 0.065331668
-3.0900342 -2.039603 0.064627506
0.73056149 -2.0420582 0.037858736
-3.0885751 -1.957871 0.063831516
0.778768 -1.9660631 0.036913261
0.82272369 -1.9155083 0.036389895
1.4845675 -1.9042478 0.042146239
-3.083041 -1.8543783 0.062800854
0.86954427 -1.8752923 0.03608235
0.94895506 -1.8326808 0.036028419
1.0336916 -1.809602 0.036378086
1.1251431 -1.8016471 0.03707657
1.2719557 -1.8058901 0.038557485
1.3409837 -1.8183568 0.039437916
1.4331243 -1.8702259 0.041127525
-3.0854378 -1.7517716 0.061932676
1.0709186 -1.7917267 0.0364362
1.1500336 -1.7898253 0.037137214
1.2321258 -1.791666 0.037955936
-3.0825629 -1.6490568 0.061023533
-3.0837064 -1.5512016 0.060254045
-3.0816057 -1.4542732 0.059480175
-3.0789418 -1.3470697 0.058663804
-3.0778351 -1.2433447 0.057943434
-3.0762806 -1.1477711 0.057314005
-3.0784943 -1.0496585 0.056775052
-3.0770898 -0.94656914 0.05619669
-3.0755954 -0.84537703 0.055677772
-3.0755527 -0.74631482 0.055243921
-3.076766 -0.64899182 0.054888874
-3.0761697 -0.54719102 0.054540075
-3.0685644 -0.4455274 0.054125547
-3.0678899 -0.35129786 0.053902093
-3.0680506 -0.25259149 0.05373662
-3.0706358 -0.14941134 0.053663962
-3.0730498 -0.046411023 0.053648811
-3.0705619 0.046337195 0.053605366
-3.0691743 0.14937769 0.053638466
-3.0700011 0.25276938 0.053770803
-3.0672979 0.35117811 0.053891584
-3.0664935 0.45045748 0.054102696
-3.0680878 0.55111027 0.054412749
-3.0641921 0.64632183 0.054664489
-3.0643916 0.74909842 0.055066615
-3.0636327 0.85320479 0.055512961
-3.0614362 0.94731849 0.055939004
-3.0636227 1.0445725 0.056500699
-3.0653119 1.1495351 0.057145912
-3.0640707 1.2557718 0.057803109
-3.0634291 1.3525299 0.058453377
-3.0583105 1.4495406 0.05907774
-3.0587819 1.5515167 0.059868187
-3.059896 1.6434801 0.060628396
-3.0589674 1.7434998 0.061460093
-3.0564139 1.8453668 0.062321134
-3.0521941 1.9492142 0.063215435
-3.0524828 2.0517509 0.064199857
-3.0563293 2.1524866 0.065252379
-3.0528147 2.2511261 0.066208959
-3.0544112 2.3486059 0.067254841
-3.0572367 2.4501812 0.068388544
-3.0555317 2.5514672 0.069485039
-3.0481491 2.6511865 0.070516057
-3.0476251 2.7510495 0.071664937
-3.051157 2.8580348 0.072974794
-3.0448444 2.9494648 0.073995113
-3.0484104 3.0434666 0.075190328
-3.0439637 3.1532176 0.076502323
-3.0486279 3.265789 0.077982798
-3.0452647 3.3512602 0.07904043
-3.0423861 3.4396043 0.080155104
-3.0437882 3.5477109 0.081594393
-3.053463 3.6570008 0.083159037
-3.0461521 3.7494469 0.084324136
-3.0419729 3.8485224 0.085627429
-3.0427308 3.9438243 0.086946964
-3.0370276 4.0475483 0.088327579
-3.0402851 4.1523967 0.089831464
-3.036948 4.2366085 0.09098766
-3.0422082 4.3509588 0.092670105
-3.0404692 4.4589081 0.094203107
-3.0341408 4.5472202 0.095419288
-3.0351741 4.6493812 0.096917532
-3.0334671 4.7504611 0.098383635
0.088350959 4.7902498 0.083628215
0.20126511 4.7993279 0.083846085
0.37884066 4.7981238 0.084012084
0.5574249 4.7974372 0.084302828
0.86993027 4.7975798 0.085107982
0.944556 4.795795 0.085320041
1.0029979 4.795073 0.085509613
1.1547406 4.7938824 0.086070746
1.2050798 4.790689 0.086226687
1.3098627 4.7971931 0.086800523
1.4532331 4.7959256 0.087472916
1.5556258 4.7986531 0.088052049
1.6894317 4.796752 0.088768914
1.7256837 4.7967834 0.088981651
1.8535771 4.7957582 0.089745753
1.9383856 4.7986879 0.090336777
2.028995 4.7900515 0.090802647
2.1454473 4.7941132 0.091679811
2.2361042 4.7939563 0.092335492
2.3520465 4.7954941 0.093232274
2.4220371 4.7951059 0.093770318
2.5726142 4.7900581 0.094906449
2.6490488 4.7963448 0.095641918
2.7399101 4.7887635 0.096303411
2.8535058 4.7926984 0.097362511
2.9562714 4.7929244 0.098296344
3.0437019 4.7898788 0.099060416
3.1187119 4.7947369 0.099839091
-3.0276437 4.8300734 0.099503413
-2.9516594 4.8337779 0.09886153
-2.8543987 4.8372297 0.098038957
-2.7553248 4.8344498 0.097129747
-2.6488633 4.8342485 0.096220046
-2.5439436 4.8333158 0.095339134
-2.442271 4.835114 0.094553605
-2.3393719 4.8310504 0.093693659
-2.2412992 4.8333449 0.092996679
-2.142257 4.8303776 0.092235371
-2.0438333 4.8250833 0.091467246
-1.9481678 4.8227158 0.090790629
-1.8493358 4.8328862 0.090324901
-1.7465041 4.8290215 0.089635178
-1.6562535 4.8312311 0.089148186
-1.5553077 4.8251266 0.088491499
-1.4487352 4.8247514 0.087932326
-1.3535286 4.8293247 0.087545291
-1.2558869 4.8213067 0.086965807
-1.1537617 4.8251705 0.086599231
-1.051747 4.8257365 0.086212181
-0.9496085 4.8214798 0.08577729
-0.84894252 4.8196616 0.085423887
-0.74999642 4.8241434 0.085218556
-0.65050679 4.8213115 0.084920116
-0.55165386 4.8179612 0.08464855
-0.45334101 4.8149719 0.084418602
-0.35612023 4.8185134 0.084338106
-0.25063688 4.8186655 0.084225588
-0.14550842 4.8212953 0.084195592
-0.048426758 4.8154159 0.084058903
0.040371008 4.8154688 0.084058098
0.14537756 4.8154149 0.084092937
0.25833809 4.8110118 0.084098756
0.35057998 4.8100662 0.084184006
0.45311114 4.8120465 0.084367394
0.54961133 4.814218 0.08457984
0.64940953 4.8131161 0.084775798
0.74725157 4.8063526 0.084904343
0.83397162 4.8054619 0.085134365
0.94738472 4.8099232 0.085572027
1.0562841 4.8077922 0.085922673
1.1480749 4.8083448 0.086290769
1.2606639 4.8066578 0.086739048
1.3644654 4.8062844 0.087210059
1.4349265 4.8081775 0.087584615
1.5495183 4.8126254 0.088253066
1.6387318 4.8065233 0.088640794
1.7751602 4.8073878 0.089451522
1.8108282 4.8046222 0.089623578
1.9526001 4.80582 0.09054707
2.0657732 4.8019814 0.091246493
2.2581179 4.8062353 0.092691138
2.3069277 4.8050833 0.093038373
2.4784498 4.8062897 0.094391607
2.5274765 4.8020883 0.094722189
2.8220539 4.8007269 0.097203277
2.9451456 4.8051133 0.098374411
3.0716734 4.8101759 0.099620678
3.7067425 -4.5003023 0.1017685
3.8637929 -4.5032363 0.10357184
4.3321681 -4.5024447 0.10906255
4.4665003 -4.5040712 0.11072108
4.5614724 -4.5233121 0.11213106
4.6545477 -4.5236835 0.11329496
4.752264 -4.5265889 0.11455926
4.8470583 -4.5247993 0.11574167
4.9496198 -4.5281873 0.1170966
5.0494995 -4.5271144 0.11837626
5.153347 -4.5275702 0.11973729
5.2623658 -4.5304055 0.12120565
5.3524871 -4.530447 0.12240228
5.4458709 -4.5316505 0.12366465
5.5566869 -4.5300345 0.12513982
5.6512413 -4.5288754 0.12641039
5.7555122 -4.5336761 0.12788785
5.8493085 -4.5286908 0.12912434
5.9584937 -4.5337887 0.13069069
6.0597234 -4.5311747 0.1320736
6.147078 -4.5325432 0.13331202
6.2379527 -4.5353017 0.13462031
6.3488269 -4.5349865 0.13618754
6.463891 -4.5358849 0.1378355
6.5595894 -4.5377035 0.1392242
6.6610622 -4.5421853 0.14072852
6.7592392 -4.5430317 0.14215589
6.8496351 -4.5373735 0.14341357
6.9548264 -4.5402527 0.1449753
7.0618305 -4.5428677 0.14656755
7.1591263 -4.537878 0.14795205
7.2447977 -4.5413208 0.14924894
7.3327494 -4.5452147 0.15058793
7.4411564 -4.5435915 0.15218475
7.5511551 -4.5415397 0.15380827
7.6494975 -4.5485086 0.15534371
7.7282448 -4.5428467 0.15647686
7.863389 -4.5516071 0.15859154
7.9415836 -4.5437446 0.15970585
8.0374603 -4.5450702 0.16117218
8.1249838 -4.5408158 0.16246729
8.236721 -4.5490189 0.16424198
8.3662443 -4.5476093 0.1662129
8.4672318 -4.5475202 0.16776277
8.5517311 -4.5560255 0.16913335
8.6501904 -4.552702 0.17062527
8.7665157 -4.5578489 0.17246585
8.8336239 -4.555181 0.17348462
8.9437656 -4.5551133 0.17519528
9.0552788 -4.5547705 0.17692903
9.1414804 -4.5597892 0.17831357
9.2559137 -4.5588074 0.18009588
9.3750353 -4.5591106 0.18196556
9.4384413 -4.55088 0.18289907
9.5403051 -4.5606351 0.18457563
9.6153069 -4.5569463 0.18573004
9.7542067 -4.5627823 0.18796724
9.8885603 -4.5652189 0.19011162
9.9611502 -4.5582771 0.19121228
10.038615 -4.5530825 0.19240518
10.156941 -4.565752 0.19437857
10.244683 -4.5639668 0.1957638
10.339506 -4.5647249 0.19728217
10.453873 -4.5733962 0.19917065
3.5793622 -4.4972024 0.10032725
3.6370254 -4.4917707 0.10088412
3.7525008 -4.494061 0.10219491
3.841737 -4.4977078 0.10324907
3.9467816 -4.4921141 0.10437571
4.0572968 -4.4948196 0.10569394
4.1534371 -4.4942136 0.10681752
4.2368703 -4.4930019 0.10779589
4.3846469 -4.4963078 0.10962252
4.4133191 -4.4954567 0.10996192
9.5082321 -2.7164752 0.17260705
9.3925362 -2.6154265 0.17018457
9.4566765 -2.667484 0.17150782
9.3499813 -2.5530071 0.16917908
9.2825451 -2.4178827 0.16743359
9.3076973 -2.4744985 0.16810992
0.66992074 -2.3598211 0.12855972
9.2777109 -2.3503258 0.16705908
-3.0892015 -2.2145226 0.19919971
0.66248316 -2.2477365 0.12281001
9.2811804 -2.2521272 0.16670527
-3.0872831 -2.1511586 0.19720389
0.68388307 -2.1410995 0.15451948
9.2831116 -2.170331 0.16640683
9.3039665 -2.1259122 0.16658664
-3.0856626 -2.0516379 0.19419967
0.69758272 -2.0688055 0.11441924
0.72466785 -2.0470591 0.15617503
9.3332005 -2.0503845 0.16679746
-3.0829425 -1.9470559 0.19109891
0.77083236 -1.9707923 0.14625804
0.81947595 -1.9168193 0.15040995
1.4950745 -1.917725 0.12743714
9.3853607 -1.963135 0.16736749
9.4358416 -1.9242266 0.16809279
-3.086406 -1.8494108 0.18857165
0.87201965 -1.8767461 0.14299683
0.95280027 -1.8325475 0.14448996
1.035538 -1.8091941 0.13170633
1.2863188 -1.8071327 0.16809513
1.3368765 -1.8216624 0.15489155
1.4324669 -1.8693826 0.12342688
9.451417 -1.8944188 0.16825618
9.5461254 -1.8468071 0.16971821
-3.0801196 -1.7486795 0.18562672
1.0704286 -1.7922702 0.15819091
1.1522521 -1.7874184 0.14714946
1.2378023 -1.7916476 0.14972453
9.6443176 -1.798897 0.17124532
9.7353125 -1.7821144 0.17275396
-3.0823162 -1.6489007 0.1832042
-3.0898569 -1.5542632 0.1812692
-3.0824356 -1.454614 0.1786326
-3.0828862 -1.3549802 0.17648892
-3.0841055 -1.2519507 0.17444696
-3.0779679 -1.1483356 0.17217503
-3.0776877 -1.0493919 0.17041916
-3.0800052 -0.9530834 0.16897246
-3.0795085 -0.85200226 0.16746068
-3.0793922 -0.7473253 0.16607457
-3.073947 -0.64844644 0.16465005
-3.0735939 -0.55204976 0.16366372
-3.0685797 -0.45082054 0.162551
-3.0723648 -0.35179725 0.16207376
-3.0674369 -0.25256485 0.16130881
-3.0739529 -0.1496003 0.16129696
-3.0688665 -0.046309453 0.16085801
-3.0687029 0.046262152 0.16084942
-3.0684655 0.14930815 0.16100894
-3.0676277 0.24741141 0.16129537
-3.0714693 0.34645781 0.16199698
-3.0679727 0.45068011 0.16251849
-3.0663455 0.55072331 0.16327754
-3.0631332 0.64612037 0.16407035
-3.0633428 0.74882472 0.16527739
-3.0616002 0.85261285 0.16656336
-3.0599649 0.952555 0.16796251
-3.0623078 1.0498362 0.16966264
-3.0620184 1.1482852 0.17139255
-3.0641537 1.2498368 0.17343523
-3.0609114 1.3453012 0.17523049
-3.0608661 1.444458 0.17738314
-3.0599442 1.5457364 0.17966944
-3.0556483 1.6478404 0.18194667
-3.0521445 1.7463619 0.18429279
6.3585849 1.7705573 0.11521225
6.4522767 1.7268845 0.11658913
6.552422 1.7067506 0.1181891
6.6346545 1.7044368 0.11956861
-3.0558603 1.8520535 0.18727331
6.254962 1.8552157 0.11388304
6.3060493 1.8016206 0.11447644
-3.0555995 1.9513098 0.19000758
6.1804757 1.9578682 0.11316483
6.2254148 1.9148432 0.11368901
-3.0556543 2.0464637 0.19274101
6.1472769 2.0499196 0.11311098
-3.0575178 2.1534042 0.19599494
6.1265798 2.1462393 0.11331253
-3.0564008 2.2489984 0.19887367
6.1272793 2.2392356 0.11387099
6.152607 2.3425293 0.11491546
6.1801229 2.4244132 0.11587809
6.2047424 2.4821744 0.11664896
6.2530618 2.538058 0.11779568
6.3139796 2.5874751 0.11910602
6.4203162 2.6562276 0.12127924
3.1734364 4.7904925 0.10030159
3.2665386 4.7902269 0.10120431
3.3506043 4.7917047 0.1020597
3.4468164 4.7911706 0.10302369
3.5423484 4.7872105 0.10395075
3.6489487 4.7898378 0.10510486
3.7469463 4.7895584 0.10614616
3.849766 4.7872224 0.10722955
3.9410508 4.784708 0.10820097
4.0389276 4.7878919 0.10933794
4.1447563 4.7817321 0.11045679
4.2614083 4.7850966 0.11184489
4.3570142 4.7784247 0.11287517
4.4525185 4.7855587 0.11409616
4.5550728 4.7819653 0.11527794
4.6578536 4.7764149 0.11645281
4.7620482 4.785984 0.11784813
4.8419356 4.7693572 0.11863194
4.9528747 4.7814293 0.12016547
5.05053 4.7784939 0.12136239
5.1528039 4.7779536 0.12265888
5.2580471 4.778091 0.12401383
5.3604274 4.7735591 0.12528953
5.4563036 4.7775865 0.12659022
5.5462456 4.7747722 0.1277438
5.6545753 4.7698364 0.12912716
5.7553539 4.7729244 0.13051079
5.851562 4.7704282 0.13178056
5.950058 4.7683449 0.13309449
6.0530267 4.768023 0.13449855
6.1581173 4.7677517 0.13594106
6.2415538 4.7657561 0.13707441
6.3339877 4.7694592 0.13839911
6.421627 4.7683105 0.13961223
6.5347219 4.7678046 0.14119719
6.649972 4.767025 0.14281896
6.7520041 4.7719364 0.14431964
6.8296194 4.7584448 0.14529335
6.9388227 4.7657394 0.14693341
7.0400672 4.7660985 0.14839703
7.1323214 4.7591448 0.1496658
7.2431593 4.7631817 0.15131763
7.3430309 4.7586575 0.15273422
7.4517689 4.7584915 0.15432894
7.5637503 4.7588735 0.15598343
7.6678677 4.752934 0.15746999
7.7821155 4.7697787 0.15932168
7.8566523 4.7612247 0.1603552
7.9600058 4.7511816 0.16181082
8.0617161 4.7571068 0.16339011
8.1471958 4.7523932 0.16463563
8.2466993 4.7550869 0.16616143
8.3458023 4.7563896 0.16767374
8.4242496 4.745204 0.16876861
8.5400887 4.7539678 0.17060781
8.6348991 4.7500877 0.17202276
8.7443523 4.7531195 0.17372465
8.8427029 4.7491755 0.17520204
8.9477444 4.747714 0.17680773
9.0710526 4.7548847 0.17876971
9.1382704 4.7511296 0.17977946
9.2519512 4.7512312 0.18154341
9.3829613 4.7590785 0.18364225
9.4218197 4.7391386 0.18409078
9.5614834 4.7492394 0.18635046
9.6886873 4.751873 0.18836159
9.7625265 4.7475495 0.18948661
9.825839 4.7376695 0.1904061
9.9545078 4.7380991 0.19243512
10.085998 4.7386727 0.19451396
10.183824 4.7430182 0.19609281
10.281395 4.7465773 0.19766402
10.360387 4.7409701 0.19887596
3.2332289 4.8104405 0.10117014
3.6404054 4.8009501 0.10516813
-3.1222291 -4.6118455 0.29187578
-3.1143572 -4.534533 0.28829685
10.52051 -4.560586 0.20014778
10.650685 -4.5746574 0.20233136
10.729413 -4.5659227 0.20353499
10.81468 -4.5594435 0.20486136
10.941479 -4.569757 0.20697188
11.053453 -4.5730596 0.20879884
11.150947 -4.5696688 0.21034987
11.28339 -4.5798202 0.21255739
11.377399 -4.573607 0.21403828
11.484871 -4.5721407 0.2157705
11.585153 -4.5671234 0.21736562
11.708647 -4.5705094 0.21939391
11.81214 -4.5653296 0.22104511
11.915093 -4.5592628 0.22268438
12.070121 -4.5722485 0.22529396
12.188797 -4.5705318 0.2272218
12.292794 -4.5625768 0.22887404
12.416546 -4.5612016 0.23089208
12.59384 -4.5784659 0.23390217
12.714468 -4.5741153 0.23585641
12.827262 -4.5661783 0.23766343
12.967727 -4.5672507 0.23998091
13.135296 -4.5768237 0.24279658
13.289895 -4.5807815 0.24536899
13.420242 -4.5754266 0.24749093
13.544991 -4.5673227 0.24950771
13.70774 -4.5710735 0.25222191
13.910436 -4.5868979 0.25566709
14.0677 -4.5865173 0.25827342
14.220537 -4.5836577 0.2607958
14.359398 -4.5753269 0.26305962
14.510838 -4.5700455 0.26555175
14.682756 -4.5701351 0.26841599
14.927923 -4.5916028 0.27261493
15.119455 -4.5950837 0.27582979
15.273336 -4.585969 0.27835503
15.452477 -4.583334 0.28133821
15.648115 -4.5843372 0.28461868
15.823208 -4.578084 0.28752258
-3.11814 -4.4436073 0.28449547
-2.9495118 -4.4523797 0.27989808
-2.8428285 -4.4516916 0.27681914
-2.7457166 -4.4461479 0.27386507
-2.6542976 -4.4467878 0.27140823
-2.5576527 -4.4528518 0.26912296
-2.4563918 -4.4474764 0.26627284
-2.3514335 -4.4494019 0.26374796
-2.2477489 -4.4499941 0.26127949
-2.1464074 -4.4515224 0.25900182
-2.0489593 -4.4577131 0.25711828
-1.9577363 -4.4545875 0.25500864
-1.8513489 -4.4536028 0.25277203
-1.7479088 -4.4555688 0.25083417
-1.6521559 -4.4511375 0.24882889
-1.5513114 -4.4520221 0.24708325
-1.4532434 -4.4571986 0.24569799
-1.354857 -4.4577913 0.24417858
-1.2490786 -4.4565458 0.2425631
-1.1453526 -4.4581575 0.24123313
-1.0504252 -4.4591479 0.24009408
-0.94907135 -4.4624467 0.23910265
-0.84828037 -4.4645243 0.23816538
-0.74751908 -4.462533 0.23713489
-0.64771652 -4.4611745 0.23625515
-0.54885292 -4.4624591 0.23563477
-0.45079553 -4.4664512 0.23526953
-0.35208258 -4.4590392 0.23442061
-0.24735776 -4.4668097 0.23445916
-0.1497194 -4.4646668 0.2341183
-0.052421149 -4.4664025 0.23409529
0.052445076 -4.4652128 0.23403296
0.14997448 -4.4717536 0.23448993
0.24762547 -4.4710646 0.23468259
0.35310754 -4.4720201 0.23510306
0.45143226 -4.472537 0.2355902
0.55042398 -4.4750619 0.23630036
0.64917332 -4.471333 0.236793
0.74942076 -4.473691 0.23772809
0.84973329 -4.4719844 0.2385637
0.94447917 -4.4776497 0.23983081
1.046429 -4.4756651 0.24089047
1.1486368 -4.4710145 0.24192859
1.2294402 -4.4729223 0.24311109
3.5195248 -4.4833956 0.29871422
-3.1133358 -4.3431568 0.2800557
-3.1064126 -4.2427573 0.27558181
-3.1094975 -4.1440864 0.27152452
-3.1117561 -4.0472026 0.26755181
-3.1094306 -3.9610965 0.26391342
-3.1089239 -3.866209 0.26000416
-3.1088257 -3.7489154 0.25524059
-3.1049557 -3.6435452 0.25088099
-3.1073258 -3.5487778 0.24720366
-3.0981882 -3.5865433 0.2483819
-3.1056163 -3.4369221 0.24276513
-3.0987358 -3.4680037 0.24373502
-3.1080544 -3.3518994 0.23956411
-3.1038191 -3.2477727 0.23543938
-3.1057487 -3.1372876 0.23135923
-3.0964575 -3.1541033 0.23164214
-3.1038578 -3.01665 0.22683583
-3.0976632 -3.0513337 0.22787589
-3.1035519 -2.9761446 0.22534989
-3.0981257 -2.9577711 0.22448069
-3.1015215 -2.8567436 0.22098792
-3.0943289 -2.8822412 0.22162013
-3.0916336 -2.7533917 0.21697128
-3.1014068 -2.6520114 0.21385868
-3.0935833 -2.6454699 0.21332724
-3.1040802 -2.548008 0.21046543
-3.092453 -2.549089 0.21003489
-3.0870197 -2.4402347 0.20622908
-3.0848472 -2.3392951 0.20290023
0.66392159 -2.3288658 0.26872715
-3.0886788 -2.2615769 0.20062551
0.66472971 -2.2491083 0.24189179
0.68095154 -2.1475077 0.26761988
0.72482896 -2.0456512 0.26649153
0.77594256 -1.9705166 0.26004469
0.82485574 -1.9204837 0.25664294
1.4835002 -1.9094443 0.25439692
1.5013372 -1.925758 0.21363254
0.87458408 -1.8747734 0.25402284
0.95157421 -1.8321412 0.25352392
1.0396324 -1.8098546 0.25628799
1.1278918 -1.8023019 0.26107365
1.269789 -1.8067219 0.27115464
1.3534917 -1.8281531 0.26123387
1.4287798 -1.8673731 0.25325003
1.0656681 -1.7920896 0.25601321
1.1570699 -1.7877659 0.26149112
1.2345039 -1.7907801 0.26706845
-3.0743294 -1.5142326 0.29982454
-3.080502 -1.4510355 0.29792041
-3.0795922 -1.3535432 0.29431328
-3.0791829 -1.2559048 0.29094797
-3.0773902 -1.1540458 0.28755605
-3.0772789 -1.0492386 0.28445664
-3.0782619 -0.94688427 0.2817764
-3.0760152 -0.8455053 0.27910781
-3.0816779 -0.74783421 0.27744693
-3.0704966 -0.64769953 0.27455515
-3.0776629 -0.55279022 0.2735793
-3.074908 -0.45175657 0.27191964
-3.0720513 -0.35174739 0.27053547
-3.0739076 -0.25312132 0.26985449
-3.0747132 -0.14960155 0.26933286
-3.0691161 -0.046336316 0.26855555
-3.0705438 0.046349574 0.26868045
-3.0681634 0.14929332 0.26875919
-3.0722761 0.24779528 0.26967186
-3.0676608 0.34603482 0.27009976
-3.0670414 0.45057335 0.2712236
-3.0724962 0.55181718 0.27311933
-3.0669138 0.65227115 0.2743338
-3.064219 0.75446767 0.27610096
-3.0681257 0.85441732 0.2786504
-3.0640044 0.94816029 0.28061515
-3.0653501 1.0451722 0.28335398
-3.0606127 1.1477245 0.2859875
-3.0643716 1.2498975 0.28954956
-3.0633476 1.3463883 0.29276025
-3.0583529 1.4495893 0.29611593
-3.0606346 1.530942 0.29940352
15.914109 1.7680049 0.27949038
16.132853 1.7375687 0.28322816
15.758788 1.8578075 0.27697515
15.817231 1.8109492 0.27789405
15.667981 1.9537121 0.2756032
15.700739 1.9043587 0.27606556
15.630053 2.0288355 0.27511236
15.597718 2.1577573 0.27485162
15.605638 2.1055529 0.27486521
-3.066205 2.2847872 0.20039944
15.595105 2.2373827 0.27500075
-3.055124 2.3491421 0.20197535
15.580417 2.3153055 0.2749432
15.60585 2.372591 0.27553084
-3.0565255 2.4496644 0.20528644
15.630322 2.4568272 0.27617806
-3.0544794 2.5505683 0.20855212
15.690358 2.5471601 0.2774612
-3.051693 2.6362293 0.21134515
15.790078 2.6177149 0.27937824
-3.0528965 2.7372689 0.21489443
15.968399 2.7023189 0.28269204
-3.0502825 2.8476017 0.21869433
-3.0474246 2.9520442 0.22235911
-3.0513768 3.0668588 0.22673187
-3.0469422 3.1562405 0.22991386
-3.0489688 3.2443001 0.23332891
-3.0487614 3.343801 0.2371494
-3.0445015 3.4536901 0.24128862
-3.0460479 3.5502331 0.24515788
-3.0467782 3.6491265 0.24914055
-3.0485904 3.7652717 0.25390169
-3.0419374 3.8617964 0.25763696
-3.0375621 3.9507122 0.26117286
-3.0426998 4.0550699 0.26569194
-3.0368197 4.1476898 0.26940721
-3.0339158 4.2474651 0.27355608
-3.0399559 4.3632207 0.2786949
-3.0369651 4.4537563 0.28251258
-3.0371273 4.5517278 0.28677404
-3.0330436 4.646132 0.29078543
-3.0332873 4.7325878 0.29459611
0.68808335 4.7960606 0.25392413
0.77837461 4.7946491 0.25456655
0.88690913 4.79952 0.25579038
0.92830014 4.7980838 0.25611991
1.0016462 4.7886109 0.25639147
1.1391389 4.7996883 0.25852948
1.2235575 4.7961164 0.25940394
1.3263204 4.7941513 0.26068822
1.4424167 4.7940526 0.26237342
1.5176225 4.7906909 0.26336724
1.6707644 4.7948661 0.26610959
1.7901042 4.7983232 0.26839897
1.8640455 4.7989931 0.26981062
1.9383593 4.7983809 0.2712214
2.0556393 4.7932243 0.27333081
2.1504369 4.7944517 0.27538651
2.2430677 4.795063 0.27743578
2.3458495 4.7929354 0.27966481
2.4657185 4.7913294 0.28240564
2.5534008 4.792695 0.28459936
2.6458781 4.790607 0.2868166
2.7325871 4.7946181 0.28922033
2.851573 4.7955298 0.2924003
2.9479656 4.7915101 0.29483598
3.0500708 4.7939472 0.29778144
3.1051342 4.7914376 0.29922792
10.437612 4.7340498 0.20005253
10.547974 4.741529 0.20186195
10.621911 4.7320199 0.20297216
10.714992 4.7304959 0.2044466
